# .PCD v0.7 - Point Cloud Data file format
VERSION 0.7
FIELDS x y z rgb KF lvl
SIZE 4 4 4 4 4 4
TYPE F F F I I I
COUNT 1 1 1 1 1 1
WIDTH 797
HEIGHT 1
VIEWPOINT 0 0 0 1 0 0 0
POINTS 797
DATA ascii
-0.39139917 -0.24360673 0.00073509727 -16777216 0 1
-0.072883487 0.11044851 -0.016501255 -16777216 0 1
-0.36934307 -0.2417959 -0.0073132012 -16777216 0 1
-0.067114837 0.019656751 -0.011965809 -16777216 0 1
-0.46301058 0.03777663 -0.032086484 -16777216 0 1
-0.077501431 0.078582011 -0.017735362 -16777216 0 1
-0.091157384 0.046219938 -0.017223461 -16777216 0 1
-0.064603508 0.13582364 -0.014795796 -16777216 0 1
-0.0946353 0.12984836 -0.01732013 -16777216 0 1
0.022011302 0.022978649 -0.01456258 -16777216 0 1
-0.062447082 0.0948513 -0.014764667 -16777216 0 1
-0.072458282 0.043609809 -0.016879784 -16777216 0 1
0.064998113 -0.067851432 -0.018532567 -16777216 0 1
0.033457875 -0.10280321 -0.014654073 -16777216 0 1
0.2240487 0.00032719958 -0.016351938 -16777216 0 1
0.11506563 -0.06458322 -0.006838013 -16777216 0 1
0.23415324 -0.04855191 -0.017530372 -16777216 0 1
0.06976483 -0.098291211 -0.014933512 -16777216 0 1
-0.41194323 0.043597087 -0.034142088 -16777216 0 1
0.12549318 -0.063351706 -0.0094115082 -16777216 0 1
0.0054551684 -0.014031995 -0.020044947 -16777216 0 1
-0.06405843 -0.082219236 -0.024353961 -16777216 0 1
-0.016852938 -0.024754817 -0.014322983 -16777216 0 1
-0.062858321 -0.095189691 -0.0020931447 -16777216 0 1
0.22543532 -0.060967792 -0.015551877 -16777216 0 1
0.045836441 0.20122008 -0.021543019 -16777216 0 1
0.024044059 0.20562083 -0.0088177947 -16777216 0 1
0.034158684 -0.025601592 -0.014754907 -16777216 0 1
0.23739278 -0.038269915 -0.02296843 -16777216 0 1
0.11426051 -0.048094328 -0.012033293 -16777216 0 1
0.020804262 -0.073686838 -0.019174315 -16777216 0 1
-0.058044367 -0.065114856 -0.019474791 -16777216 0 1
-0.48500991 0.20865925 -0.027727185 16711680 1 2
-0.45888919 0.21320042 -0.038301662 16711680 1 2
0.25282568 0.24957412 -0.003740292 16711680 1 2
-0.47777319 0.21174861 -0.042038977 16711680 1 2
0.12922855 0.22270632 -0.016160794 16711680 1 2
0.050180208 0.20787211 -0.017958933 16711680 1 2
0.12099465 0.21595253 -0.015708387 16711680 1 2
0.033336479 0.206322 -0.02823744 16711680 1 2
0.045415372 0.1977606 -0.017240033 16711680 1 2
-0.078795731 0.13170815 -0.012273537 16711680 1 2
-0.070470564 0.13284451 -0.015576691 16711680 1 2
-0.063288152 0.13397336 -0.014938656 16711680 1 2
-0.094553836 0.12044515 -0.0095509468 16711680 1 2
-0.063156687 0.13326776 -0.029949006 16711680 1 2
-0.34979197 0.10888486 -0.025251161 16711680 1 2
-0.47043777 0.11021481 -0.038610581 16711680 1 2
-0.35220554 0.10037965 -0.02535153 16711680 1 2
-0.070378169 0.10853948 -0.01622908 16711680 1 2
-0.095793322 0.10186397 -0.021890229 16711680 1 2
-0.059612032 0.097851828 -0.028495057 16711680 1 2
-0.077189833 0.084243648 -0.017624147 16711680 1 2
-0.46286467 0.072531365 -0.029614391 16711680 1 2
-0.42450336 0.072709598 -0.039093167 16711680 1 2
-0.081814967 0.074038856 -0.011233319 16711680 1 2
-0.40006161 0.056945153 -0.028390227 16711680 1 2
-0.0908591 0.058222469 -0.0038633007 16711680 1 2
0.063800722 0.075736307 -0.022514876 16711680 1 2
-0.4631516 0.052473415 -0.028649325 16711680 1 2
-0.4521901 0.080280527 -0.10038161 16711680 1 2
-0.043793775 0.062314849 -0.015557921 16711680 1 2
0.10740553 0.072727948 -0.014792075 16711680 1 2
0.026184479 0.063300684 -0.018355116 16711680 1 2
-0.38188946 0.044996623 -0.027686821 16711680 1 2
-0.074488528 0.050867666 -0.013300186 16711680 1 2
-0.018266372 0.05920798 -0.024826255 16711680 1 2
-0.0075133638 0.05384687 -0.0086414944 16711680 1 2
0.081222296 0.059781529 -0.0088124061 16711680 1 2
-0.41003349 0.038454976 -0.023627819 16711680 1 2
-0.013495944 0.053351179 -0.01791174 16711680 1 2
0.050423991 0.059920892 -0.022170467 16711680 1 2
0.1206089 0.066410638 -0.027457256 16711680 1 2
-0.4637318 0.040534396 -0.041940194 16711680 1 2
-0.091983803 0.044861019 -0.019352084 16711680 1 2
-0.026510814 0.049120113 -0.02220819 16711680 1 2
0.016385511 0.044627443 -0.0031506801 16711680 1 2
0.029258119 0.052858692 -0.022299396 16711680 1 2
0.045051415 0.022956882 0.062419519 16711680 1 2
-0.0016118197 0.041580576 -0.004784544 16711680 1 2
0.0096216341 0.046406109 -0.017943876 16711680 1 2
0.050291952 0.050664913 -0.021984 16711680 1 2
0.090158187 0.058423873 -0.03392167 16711680 1 2
-0.055912916 0.036242221 -0.010894248 16711680 1 2
0.10968104 0.049127184 -0.014508481 16711680 1 2
-0.023289517 0.038784388 -0.022429755 16711680 1 2
0.27422726 0.058595378 -0.010964319 16711680 1 2
0.2807681 0.052877713 -0.0067682308 16711680 1 2
0.3063612 0.057923112 -0.01565508 16711680 1 2
0.14704455 0.03653229 -0.00467565 16711680 1 2
0.31678131 0.056232706 -0.018890262 16711680 1 2
0.36423668 0.062342707 -0.022707732 16711680 1 2
0.10983016 0.02971209 -0.0074067628 16711680 1 2
0.20173904 0.039431997 -0.012752694 16711680 1 2
0.2185805 0.045014769 -0.026594512 16711680 1 2
0.23500854 0.038230088 0.0076983073 16711680 1 2
0.26442018 0.047561713 -0.019118277 16711680 1 2
0.33433738 0.052192256 -0.014948217 16711680 1 2
0.38064787 0.057186216 -0.018603167 16711680 1 2
-0.06622453 0.017567098 -0.015930628 16711680 1 2
0.025333056 0.024055393 -0.019882191 16711680 1 2
0.056907874 0.023889754 -0.0096013965 16711680 1 2
0.069086209 0.02692998 -0.02061829 16711680 1 2
0.094954759 0.028936327 -0.019559192 16711680 1 2
0.14909382 0.024859721 0.0019454574 16711680 1 2
0.16725278 0.029222857 -0.002298878 16711680 1 2
0.22702369 0.030589443 0.0088799326 16711680 1 2
0.36954463 0.052568484 -0.020374993 16711680 1 2
-0.031907286 0.018347831 -0.019763613 16711680 1 2
0.21778333 0.034183148 -0.019213742 16711680 1 2
0.23615837 0.028417252 0.0083993357 16711680 1 2
-0.04748477 0.010373295 -0.01303447 16711680 1 2
0.048436638 0.019193962 -0.021621408 16711680 1 2
0.050749082 0.015569254 -0.010259527 16711680 1 2
0.17113146 0.027168853 -0.020974338 16711680 1 2
0.37934938 0.049255967 -0.034400828 16711680 1 2
0.18884276 0.023892015 -0.020832822 16711680 1 2
0.31015608 0.035730369 -0.026908942 16711680 1 2
3.8040191e-05 0.0054548681 -0.012928485 16711680 1 2
0.025525076 0.008105021 -0.020103652 16711680 1 2
0.30527195 0.0264754 -0.0074162371 16711680 1 2
0.31792414 0.028153708 -0.010987278 16711680 1 2
-0.045771781 -0.0043605571 -0.0047151586 16711680 1 2
-0.038022395 -0.0016728919 -0.011489077 16711680 1 2
-0.0028363855 0.0043427623 -0.023179576 16711680 1 2
-0.063969657 -0.0068440367 -0.010931833 16711680 1 2
0.3763766 0.029842511 -0.03366562 16711680 1 2
0.14842632 -9.9387016e-06 -0.017502192 16711680 1 2
0.22767687 0.0046232524 -0.016033048 16711680 1 2
-0.035694048 -0.017681872 -0.0084093036 16711680 1 2
0.0046521402 -0.016085681 -0.016754594 16711680 1 2
0.06388633 -0.014416941 -0.015500368 16711680 1 2
0.076086193 -0.009640188 -0.024345465 16711680 1 2
0.19647792 -0.010030422 -0.0010925949 16711680 1 2
0.22839788 -0.0023507406 -0.01795656 16711680 1 2
0.06000974 -0.014800349 -0.024425779 16711680 1 2
0.076898828 -0.017375084 -0.010733186 16711680 1 2
0.11060397 -0.013993404 -0.015657481 16711680 1 2
0.13738158 -0.011695067 -0.021003952 16711680 1 2
-0.015055759 -0.024860593 -0.014559771 16711680 1 2
0.015772674 -0.026482996 -0.0072891735 16711680 1 2
0.10332792 -0.017301224 -0.018839631 16711680 1 2
0.23003374 -0.011604117 -0.015067974 16711680 1 2
-0.034617107 -0.031013742 -0.011353103 16711680 1 2
0.032707516 -0.027362233 -0.010899792 16711680 1 2
0.15740754 -0.018106386 -0.022220133 16711680 1 2
0.0050717806 -0.031134332 -0.017153716 16711680 1 2
0.078577936 -0.02997911 -0.0077800727 16711680 1 2
0.11529253 -0.024301987 -0.019285589 16711680 1 2
0.051744916 -0.03518584 -0.0049461513 16711680 1 2
0.10307617 -0.029467642 -0.018549871 16711680 1 2
0.021100031 -0.038969893 -0.014347179 16711680 1 2
0.058037672 -0.040722381 -0.01347979 16711680 1 2
0.12228823 -0.045275945 -0.029571705 16711680 1 2
0.15273793 -0.053876825 -0.016812008 16711680 1 2
0.23040907 -0.051349372 -0.015186072 16711680 1 2
-0.063097142 -0.070141248 -0.0031744451 16711680 1 2
0.15688185 -0.058961481 -0.0092487456 16711680 1 2
0.21007676 -0.057866793 -0.0011061 16711680 1 2
0.25365791 -0.055403877 -0.010033498 16711680 1 2
0.28605577 -0.049967095 -0.026226748 16711680 1 2
-0.00083161204 -0.068266496 -0.01838509 16711680 1 2
0.049890444 -0.066827007 -0.01434658 16711680 1 2
0.10611605 -0.067995004 0.0020204799 16711680 1 2
0.11473219 -0.06530986 -0.0067835515 16711680 1 2
0.36660442 0.044570718 -0.39018506 16711680 1 2
-0.038656719 -0.074073628 -0.011748371 16711680 1 2
0.027990524 -0.071638949 -0.01543174 16711680 1 2
0.044579454 -0.068878189 -0.018157205 16711680 1 2
0.056523204 -0.07073018 -0.012499446 16711680 1 2
0.095916972 -0.069509849 -0.014486997 16711680 1 2
0.14783379 -0.066100635 -0.016214594 16711680 1 2
0.0016434515 -0.075673856 -0.0155604 16711680 1 2
0.020530352 -0.07492163 -0.015602851 16711680 1 2
0.082187757 -0.073926613 -0.011505553 16711680 1 2
0.061884068 -0.07956627 -0.0078021428 16711680 1 2
0.11017289 -0.075815544 -0.013033939 16711680 1 2
-0.032247026 -0.08519721 -0.010923775 16711680 1 2
-0.01187381 -0.082089417 -0.02139134 16711680 1 2
-0.0026719824 -0.08083199 -0.024472754 16711680 1 2
-0.054795153 -0.093590237 -0.010646044 16711680 1 2
0.071352981 -0.098853424 -0.015041865 16711680 1 2
0.1045207 -0.099670969 -0.022567729 16711680 1 2
0.14438267 -0.11549907 0.056907397 16711680 1 2
0.19477084 -0.097222514 -0.018894158 16711680 1 2
0.0078752954 -0.10733601 -0.014993772 16711680 1 2
0.037954397 -0.1073283 -0.015729554 16711680 1 2
0.08616595 -0.10325279 -0.023816988 16711680 1 2
0.0040011858 -0.11594617 -0.027440425 16711680 1 2
0.053315967 -0.116064 -0.019059928 16711680 1 2
-0.49924785 -0.24895552 -0.0069396882 16711680 1 2
-0.40177727 -0.24164918 -0.011384417 16711680 1 2
-0.39017048 -0.24522756 -0.0048091761 16711680 1 2
-0.365554 -0.24308762 -0.015369015 16711680 1 2
-0.48858845 -0.25421184 -0.016056087 16711680 1 2
-0.47987351 -0.25231749 -0.032113358 16711680 1 2
-0.10060042 0.12067771 0.0045547341 65280 2 2
-0.064431489 0.13484512 -0.018071113 65280 2 2
-0.074092038 0.10277573 -0.0078879083 65280 2 2
-0.094901524 0.097926497 -0.017295683 65280 2 2
-0.091541737 0.075369671 -0.026109708 65280 2 2
-0.40277317 0.058893867 -0.027040338 65280 2 2
-0.44531727 0.051401347 -0.031060057 65280 2 2
0.023464754 0.062623478 -0.011679821 65280 2 2
-0.07330323 0.041800216 -0.010426707 65280 2 2
0.021910915 0.053908378 -0.032190301 65280 2 2
-0.062995926 0.014562643 -0.023265945 65280 2 2
-0.047869198 0.012864505 -0.016713029 65280 2 2
-0.10620277 -0.10204718 0.3078998 65280 2 2
0.014124276 0.012363565 -0.002705005 65280 2 2
-0.021951625 -0.025830073 -0.0089230593 65280 2 2
-0.0576915 -0.067122333 -0.015801474 65280 2 2
0.12197024 -0.06197954 -0.014745947 65280 2 2
-0.05369838 -0.093287326 -0.0040190704 65280 2 2
0.072080322 -0.10088184 -0.011506093 65280 2 2
-0.3859432 -0.24254419 -0.016033398 65280 2 2
-0.35655707 -0.24092209 -0.02038485 65280 2 2
-0.39292353 -0.2464897 -0.042198081 255 3 3
0.64834636 -0.040326718 0.0166087 16711680 1 3
0.71565443 -0.030006429 -0.0090401033 16711680 1 3
0.65103358 -0.03963165 0.0016706493 16711680 1 3
0.64421964 -0.042766064 -0.0094194571 16711680 1 3
0.66001266 -0.048778135 -0.0027467527 16711680 1 3
0.74784982 -0.043749325 -0.035387702 16711680 1 3
0.64898169 -0.061432038 0.0067674113 16711680 1 3
0.69622493 -0.056932233 -0.0095133213 16711680 1 3
0.74705619 -0.064156838 -0.040286943 16711680 1 3
0.69669497 -0.073915184 -0.016747987 16711680 1 3
0.71182036 -0.095963903 -0.0088344933 16711680 1 3
0.6465342 -0.16219802 0.0048811925 16711680 1 3
0.61904234 -0.16384672 -0.0078984462 16711680 1 3
0.66693646 -0.16924916 0.012338862 16711680 1 3
0.49759716 -0.17605232 0.0012801618 16711680 1 3
0.51578325 -0.17621183 0.00099874754 16711680 1 3
0.53937835 -0.17914568 0.0020462954 16711680 1 3
0.60169023 -0.1721884 -0.042064793 16711680 1 3
0.45522472 -0.17882076 -2.3833591e-05 16711680 1 3
0.5657233 -0.17187263 -0.0056590657 65280 2 3
0.49178514 -0.17826235 0.0025330796 65280 2 3
0.52163517 -0.17842042 -0.0033701046 65280 2 3
-0.50239444 -0.25262114 -0.0232489 65280 2 3
-0.084914938 0.087659948 0.028130494 255 3 4
-0.60545081 -0.25611082 -0.049049351 16711680 1 4
-0.59172732 -0.25487065 -0.047053393 16711680 1 4
-0.54603624 -0.2525273 -0.021898028 16711680 1 4
-0.56314796 -0.25739422 -0.023213718 16711680 1 4
-0.065411001 0.29277369 -0.024678042 16711680 1 5
-0.4833979 0.18378647 -0.075587429 16711680 1 5
-0.65360242 0.12588525 -0.06222409 16711680 1 5
0.63699657 -0.042905308 9.9686848e-05 16711680 1 5
0.65086251 -0.048177384 -0.01619141 16711680 1 5
-0.67015648 -0.26504236 -0.068056069 16711680 1 5
-0.58556664 -0.25372115 -0.036075871 65280 2 5
0.072031125 0.35297051 -0.017240878 16711680 1 6
0.099427365 0.34590873 -0.02632241 16711680 1 6
-0.50523263 0.026866339 -0.052304499 16711680 1 6
-0.82985967 0.13451323 -0.062396497 16711680 1 7
0.36339727 0.060397856 -0.01502316 16711680 1 7
0.31130403 0.051847912 -0.0059095318 16711680 1 7
0.37999478 0.058673892 -0.021018721 16711680 1 7
0.22677249 0.0014741297 -0.01730343 16711680 1 7
0.2616412 -0.04595457 -0.027034586 16711680 1 7
0.2169838 -0.055191383 -0.0080736494 16711680 1 7
0.23583393 -0.051017042 -0.02218141 16711680 1 7
0.58693701 -0.16750744 -0.039635025 255 3 9
0.62607646 -0.17295787 0.012882988 255 3 9
0.76932991 -0.16260482 0.0067414818 16711680 1 9
0.7820366 -0.16132256 0.015518968 65280 2 9
0.83476204 0.16157985 0.030568114 16711680 1 10
0.96665102 0.17424591 0.029417638 16711680 1 10
0.82817483 0.15209623 0.020008573 16711680 1 10
0.91809839 0.16468674 0.018184934 16711680 1 10
0.96362662 0.1629812 0.047953803 16711680 1 10
1.0259018 0.17170359 0.046667986 16711680 1 10
0.8065474 0.12285536 0.0093480404 16711680 1 10
0.87354523 0.10574239 0.008619478 16711680 1 10
0.88333571 0.10498568 0.015063939 16711680 1 10
0.83829033 0.083792917 0.028207453 16711680 1 10
0.93642575 0.096166745 0.031930532 16711680 1 10
0.93646526 0.087600142 0.055756979 16711680 1 10
0.82020622 0.071013398 0.0037218814 16711680 1 10
0.92228311 0.0085779205 0.036610793 16711680 1 10
1.0129534 0.014776941 0.0089854896 16711680 1 10
0.78176975 -0.044251833 -0.00092225696 16711680 1 10
0.83107436 -0.064558558 -0.0039525512 16711680 1 10
0.83873963 -0.082679413 0.0019965635 16711680 1 10
0.93798226 -0.11375603 -0.0047757095 16711680 1 10
0.79182303 0.059280783 0.031538852 65280 2 10
0.71184349 -0.067145176 -0.030818354 65280 2 10
0.69996792 -0.073480494 0.013543825 65280 2 10
1.5384799 0.49238861 -0.0033632892 255 3 11
1.2512362 -0.12076811 0.041773196 255 3 11
1.0506943 -0.13300712 0.022029135 255 3 11
1.4513079 0.6304065 0.12767807 16711680 1 11
1.4840804 0.63073814 0.10520465 16711680 1 11
1.5465117 0.59527165 0.1009541 16711680 1 11
1.560625 0.5635767 0.134463 16711680 1 11
1.5497922 0.53298318 0.13294978 16711680 1 11
1.6756409 0.57526457 0.10613228 16711680 1 11
1.520983 0.52268636 0.11930817 16711680 1 11
1.5822619 0.52155048 0.11888555 16711680 1 11
1.5213573 0.43661672 0.13838886 16711680 1 11
1.6418531 0.4731999 0.090219423 16711680 1 11
1.5071051 0.43476689 0.06522347 16711680 1 11
1.7563525 0.4823572 0.029454388 16711680 1 11
1.5116494 0.39265323 0.1196134 16711680 1 11
1.39412 0.36531052 0.10335486 16711680 1 11
1.4268687 0.36039138 0.068796128 16711680 1 11
1.5367955 0.37193424 0.068803474 16711680 1 11
1.3992699 0.29802772 0.17287599 16711680 1 11
1.4880108 0.33139956 0.072580799 16711680 1 11
1.5556027 0.32254392 0.11074161 16711680 1 11
1.5006628 0.30982053 0.069201514 16711680 1 11
1.5544794 0.30308101 0.069196418 16711680 1 11
1.6330662 0.31978408 0.053544655 16711680 1 11
1.3511598 0.18710792 0.12847634 16711680 1 11
1.1943001 0.11688223 0.2351407 16711680 1 11
1.1154666 0.046050869 0.034904417 16711680 1 11
1.3304144 0.024021316 0.066996582 16711680 1 11
1.4395717 -0.11197229 0.052527968 16711680 1 11
1.2600801 -0.11742295 0.054148335 16711680 1 11
1.323568 -0.12233987 0.037881739 16711680 1 11
1.4319098 -0.1172427 0.0064332476 16711680 1 11
1.1980058 -0.12409971 0.016874421 16711680 1 11
1.4342995 -0.13593796 0.058546621 16711680 1 11
1.1759554 -0.12885916 0.0082002468 16711680 1 11
1.4773033 0.23016042 0.04955373 65280 2 11
1.2789484 0.14608946 0.19836675 65280 2 11
1.3137624 0.12807165 0.17266554 65280 2 11
2.1028223 0.55250371 0.1285357 255 3 12
2.1011667 0.44211012 0.093588404 255 3 12
2.1584034 0.33309686 0.081961729 255 3 12
2.4448969 0.34304783 0.04532117 255 3 12
1.5237255 0.1147159 0.078653865 255 3 12
0.074001856 0.35278493 -0.017394889 16711680 1 12
0.098220699 0.34591988 -0.018020011 16711680 1 12
1.8017083 0.60575902 0.13895988 16711680 1 12
1.768121 0.55468506 0.14520465 16711680 1 12
1.8144038 0.50437611 0.11366894 16711680 1 12
1.8142291 0.4900347 0.099225655 16711680 1 12
1.7962719 0.44414327 0.14045613 16711680 1 12
2.0232167 0.50893313 0.093618415 16711680 1 12
1.7940063 0.44423312 0.10991091 16711680 1 12
2.1399817 0.50951374 0.14569458 16711680 1 12
1.8242242 0.4385621 0.12301108 16711680 1 12
1.9689317 0.47046852 0.11262256 16711680 1 12
1.9915618 0.46221864 0.15394758 16711680 1 12
1.8461289 0.45022094 0.070308365 16711680 1 12
1.870888 0.42340258 0.11332589 16711680 1 12
1.7785627 0.39612311 0.11677077 16711680 1 12
1.9188702 0.41315359 0.1134494 16711680 1 12
1.7741899 0.38173985 0.095891483 16711680 1 12
2.031105 0.42915717 0.10161189 16711680 1 12
2.0061748 0.42043182 0.079277851 16711680 1 12
1.892634 0.38170344 0.080378994 16711680 1 12
2.1625926 0.42805275 0.089066662 16711680 1 12
2.181186 0.41516459 0.11203526 16711680 1 12
1.7644372 0.33222798 0.11847606 16711680 1 12
1.7972775 0.32630169 0.1278771 16711680 1 12
1.7948228 0.33229464 0.07187891 16711680 1 12
0.71359819 -0.031445201 0.69382226 16711680 1 12
1.9340941 0.33675912 0.077751383 16711680 1 12
1.9564459 0.33535263 0.095845714 16711680 1 12
2.1011178 0.34725717 0.13270806 16711680 1 12
1.8432382 0.31445462 0.068777084 16711680 1 12
1.9983118 0.32791471 0.10381917 16711680 1 12
2.239917 0.36149368 0.080924027 16711680 1 12
1.5834624 0.21327311 0.14957225 16711680 1 12
1.7776641 0.25410903 0.10141169 16711680 1 12
2.058423 0.21371953 0.38837427 16711680 1 12
3.1965287 0.4968442 -0.21393012 16711680 1 12
1.6915542 0.22543092 0.038941473 16711680 1 12
1.9644432 0.24499705 0.089095682 16711680 1 12
2.3655591 0.30313146 0.057587449 16711680 1 12
1.3875318 0.1225661 0.25384668 16711680 1 12
1.8291562 0.22469832 0.065566309 16711680 1 12
2.2025306 0.062721767 0.12049687 16711680 1 12
2.1633387 -0.1542491 0.11979725 16711680 1 12
2.0532756 -0.17618676 0.19363815 16711680 1 12
2.0701387 -0.17088866 0.08393082 16711680 1 12
2.0789299 -0.19008508 0.17046045 16711680 1 12
2.1779308 -0.19036487 0.09838061 16711680 1 12
2.4248407 -0.22358093 0.16823089 16711680 1 12
1.9225912 -0.22037727 0.18153888 16711680 1 12
2.2460663 -0.23996779 0.094173886 16711680 1 12
1.9350178 -0.4302671 0.20582865 16711680 1 12
1.4917405 -0.4558453 0.19553114 16711680 1 12
1.4813983 -0.4666979 0.16811642 16711680 1 12
1.3878945 -0.49107981 0.46043369 16711680 1 12
1.3993834 -0.47684917 0.24965301 16711680 1 12
1.3401651 -0.50375128 0.48425624 16711680 1 12
1.280444 -0.49484441 0.46218127 16711680 1 12
1.3286169 -0.5247159 0.50688744 16711680 1 12
1.2957475 -0.51509148 0.45270202 16711680 1 12
1.6939811 0.62334901 0.091582336 65280 2 12
1.6334834 0.55565345 0.13310684 65280 2 12
1.7235118 0.56105894 0.13635467 65280 2 12
1.5985354 0.36172393 0.12397127 65280 2 12
2.4666831 0.13261357 0.0029329592 65280 2 12
2.2763155 -0.14715342 0.058128588 65280 2 12
2.1073704 -0.1649711 0.061227515 65280 2 12
2.2115633 -0.18779147 0.16881847 65280 2 12
2.2641554 -0.19849376 0.10083226 65280 2 12
1.7343657 -0.43282825 0.21255258 65280 2 12
1.7525984 -0.48651797 0.25456822 65280 2 12
2.3968546 -0.13062654 0.018699137 255 3 13
2.8479564 -0.23643756 0.049097568 255 3 13
2.4362113 -0.25358474 0.02284752 255 3 13
2.6410294 -0.30221468 0.25223562 255 3 13
2.7379801 -0.31852376 0.071811624 255 3 13
2.428818 -0.35338941 -0.083443105 255 3 13
3.526217 1.0675411 0.16103199 16711680 1 13
0.94448721 0.35696059 0.058961205 16711680 1 13
0.7228272 0.22421157 0.01855582 16711680 1 13
0.72951257 0.20920165 0.046671707 16711680 1 13
3.3420286 0.47885519 0.37098154 16711680 1 13
4.352354 0.6759274 0.21523847 16711680 1 13
3.305512 0.44798833 0.3143118 16711680 1 13
1.125543 0.15970051 0.067859843 16711680 1 13
3.5041699 0.42676932 0.35427368 16711680 1 13
1.2441807 0.15188871 0.057193696 16711680 1 13
3.7383618 0.43175119 0.31007731 16711680 1 13
1.2092798 0.10887875 0.054423675 16711680 1 13
0.70024979 0.059817761 0.0003246885 16711680 1 13
0.74440801 0.061829366 0.0074474746 16711680 1 13
1.3291477 0.095069766 0.080282196 16711680 1 13
1.1922135 0.07736221 0.069342703 16711680 1 13
1.2407615 0.083163872 0.064370312 16711680 1 13
1.3576771 0.093121938 0.074744858 16711680 1 13
1.2141761 0.060784701 0.06593667 16711680 1 13
0.68740135 0.016890738 -0.0062401374 16711680 1 13
1.1132728 -0.013803487 0.036547035 16711680 1 13
1.1979512 -0.011687552 0.05075004 16711680 1 13
1.1194489 -0.024040317 0.029813847 16711680 1 13
1.0360466 -0.075556062 0.029067852 16711680 1 13
1.0186121 -0.09830372 0.027457526 16711680 1 13
1.0645821 -0.10946097 0.021625398 16711680 1 13
1.0502615 -0.11497984 0.016483542 16711680 1 13
3.1800158 -0.18280724 0.32409772 16711680 1 13
3.1365559 -0.19009481 0.36072677 16711680 1 13
2.2423375 -0.33264065 0.077119797 16711680 1 13
2.2546556 -0.45155841 0.42271927 16711680 1 13
3.7029388 -0.50538129 -0.25263557 16711680 1 13
2.8021419 -0.4711237 0.14015707 16711680 1 13
2.8740215 -0.51661253 -0.0051461821 16711680 1 13
1.941903 -0.47832024 0.40469599 16711680 1 13
1.874805 -0.48558539 0.50985503 16711680 1 13
1.9088353 -0.48742828 0.44025362 16711680 1 13
1.9390227 -0.49395657 0.45352149 16711680 1 13
1.7247276 -0.53230232 0.63839066 16711680 1 13
1.5986077 -0.52290714 0.65698051 16711680 1 13
1.5484412 -0.51991361 0.5376907 16711680 1 13
1.511462 -0.52624297 0.57734746 16711680 1 13
1.5286299 -0.52546459 0.50197685 16711680 1 13
1.5555996 -0.55520922 0.60900003 16711680 1 13
1.389008 -0.53446895 0.68457657 16711680 1 13
1.5464991 -0.56637907 0.65685916 16711680 1 13
1.2440071 -0.46345273 0.23928495 16711680 1 13
1.4178697 -0.54999316 0.66850942 16711680 1 13
1.2105354 -0.48445368 0.24282655 16711680 1 13
1.1800749 -0.49846479 0.25261858 16711680 1 13
3.4349351 1.03294 0.15318222 65280 2 13
1.3413521 0.32325089 0.13454878 65280 2 13
1.623751 0.35988882 0.10643258 65280 2 13
0.93587512 0.15896352 0.053018216 65280 2 13
3.8967483 0.5530476 0.24449264 65280 2 13
3.1614089 0.46024191 0.060675744 65280 2 13
3.1807926 0.37425572 0.087178104 65280 2 13
1.0043777 0.011745712 0.014016011 65280 2 13
1.9664871 -0.49214411 0.44333455 65280 2 13
1.8717794 -0.53247631 0.38766095 65280 2 13
1.3394343 -0.4491289 0.19014437 65280 2 13
1.4065543 -0.4657084 0.2010444 65280 2 13
1.5046347 -0.52741736 0.58346033 65280 2 13
1.5760822 -0.54988104 0.62758899 65280 2 13
1.5964777 -0.56067973 0.57727689 65280 2 13
4.2604847 0.63676375 1.0501932 255 3 14
4.4487743 0.69097328 0.70645624 255 3 14
3.3133965 0.4480052 0.36557743 255 3 14
3.8520513 0.2215592 0.64399958 255 3 14
4.1928396 0.16566114 0.63733298 255 3 14
5.3835611 0.19803376 0.86299461 255 3 14
6.290463 0.12387386 0.6781565 255 3 14
4.4974799 -0.019198734 0.55167526 255 3 14
4.4652944 -0.20832476 0.85545617 255 3 14
3.6930206 -0.3314335 0.83981496 255 3 14
4.150394 0.63484448 1.3448931 16711680 1 14
5.3338685 0.89436322 1.3183135 16711680 1 14
3.9098029 0.64961922 0.68235874 16711680 1 14
3.8715081 0.55381459 0.66751248 16711680 1 14
4.159337 0.55930948 0.66837138 16711680 1 14
3.3475788 0.40889716 0.5130347 16711680 1 14
3.5389218 0.43472636 0.55508876 16711680 1 14
3.6466494 0.43406895 0.61652339 16711680 1 14
3.5961578 0.40723222 0.52288824 16711680 1 14
3.6749933 0.40876189 0.56288505 16711680 1 14
3.937968 0.39959639 0.65798438 16711680 1 14
3.4131219 0.35056275 0.47119355 16711680 1 14
3.7570236 0.40064183 0.47066462 16711680 1 14
3.6620915 0.3436487 0.59525436 16711680 1 14
3.6028881 0.298154 0.62579024 16711680 1 14
3.7917058 0.30007321 0.6774171 16711680 1 14
3.6644933 0.16931576 0.61618954 16711680 1 14
3.5334096 0.14840043 0.6633727 16711680 1 14
4.1762481 0.20847689 0.60796738 16711680 1 14
4.2820711 0.21396637 0.56036544 16711680 1 14
4.657371 0.14615716 0.86692309 16711680 1 14
3.935843 0.10652626 0.62809187 16711680 1 14
4.7276039 0.09260004 0.83282638 16711680 1 14
4.0930429 0.076742828 0.61203057 16711680 1 14
4.280611 0.0063612289 0.7614097 16711680 1 14
4.2943721 0.0047914009 0.77559781 16711680 1 14
3.7336655 -0.17154892 0.91631955 16711680 1 14
3.9401021 -0.14542118 0.77067006 16711680 1 14
3.6077523 -0.18673456 0.8014037 16711680 1 14
4.1273332 -0.16664605 0.6669212 16711680 1 14
4.6046844 -0.21695378 0.93718845 16711680 1 14
4.0170207 -0.24315488 1.0287836 16711680 1 14
4.0324612 -0.16995925 0.61812663 16711680 1 14
3.5328181 -0.17371319 0.54469597 16711680 1 14
3.6291478 -0.26558238 0.91978031 16711680 1 14
3.4486711 -0.27504659 0.90640479 16711680 1 14
3.9500358 -0.28270307 0.9350546 16711680 1 14
4.1039777 -0.31611457 1.0874891 16711680 1 14
3.9289761 -0.24597581 0.67819488 16711680 1 14
3.7507598 -0.2762748 0.68241131 16711680 1 14
3.8982356 -0.30284467 0.81772327 16711680 1 14
3.5201809 -0.3239266 0.94361478 16711680 1 14
3.8401542 -0.34555519 1.0171942 16711680 1 14
4.2876096 -0.36459675 1.0888698 16711680 1 14
3.4112577 -0.26041484 0.57703143 16711680 1 14
3.2743196 -0.26859236 0.62567282 16711680 1 14
3.3814328 -0.30296886 0.79223514 16711680 1 14
3.8294516 -0.33512959 0.5748356 16711680 1 14
2.7310123 -0.31045726 0.51999342 16711680 1 14
2.7364345 -0.33859184 0.55815756 16711680 1 14
2.9719362 -0.28835946 0.067148007 16711680 1 14
3.8257003 -0.53610647 0.98149836 16711680 1 14
1.9595482 -0.43891481 1.0507652 16711680 1 14
3.7638826 -0.69821733 0.95504659 16711680 1 14
2.7878826 -0.59419537 0.56132072 16711680 1 14
2.7700651 -0.69290155 1.0358145 16711680 1 14
2.1591346 -0.6335243 1.1109053 16711680 1 14
1.4795351 -0.5052079 0.90797496 16711680 1 14
1.8413634 -0.59681493 0.98030025 16711680 1 14
1.7427481 -0.59466201 1.0102814 16711680 1 14
1.7132835 -0.59188408 0.87900096 16711680 1 14
1.6777625 -0.58917993 0.89825517 16711680 1 14
1.7306776 -0.60841584 0.87326574 16711680 1 14
1.5931827 -0.58761972 0.85986376 16711680 1 14
1.4393921 -0.5724476 0.74876618 16711680 1 14
1.4496502 -0.58223861 0.76243448 16711680 1 14
1.379443 -0.61399239 0.94878012 16711680 1 14
3.3980989 1.0180706 0.16306587 65280 2 14
3.0372624 -0.18725176 0.38187429 65280 2 14
1.7012792 -0.19421075 0.010353782 65280 2 14
2.6200943 -0.36388993 0.58359849 65280 2 14
1.644026 -0.54205281 0.75792921 65280 2 14
1.6930496 -0.55353463 0.78500348 65280 2 14
1.6509582 -0.5668633 0.81793755 65280 2 14
4.0679607 0.36329341 2.5310478 255 3 15
5.5948572 0.43348527 2.7289257 255 3 15
3.353137 0.12213622 1.710429 255 3 15
4.4081779 0.1195272 2.2274036 255 3 15
4.3949509 -0.10883711 2.5248182 255 3 15
4.4822969 -0.072688818 1.6786761 255 3 15
4.0730853 -0.43789363 2.2004998 255 3 15
2.7119143 -0.50267488 1.7808789 255 3 15
4.4248147 -0.70689195 2.4356558 255 3 15
1.6183445 -0.49625778 1.339131 255 3 15
1.7381797 -0.51835531 1.2872579 255 3 15
4.7123837 0.8310926 3.0561597 16711680 1 15
4.3096485 0.56529921 2.8171327 16711680 1 15
4.6441031 0.62098932 3.0190663 16711680 1 15
4.2978625 0.65520495 2.3262284 16711680 1 15
4.2218337 0.5986954 2.3306375 16711680 1 15
4.3279018 0.70068467 1.9682395 16711680 1 15
4.2935538 0.66386557 2.0763063 16711680 1 15
4.0960536 0.5830785 2.182368 16711680 1 15
4.6683178 0.54287219 3.0379148 16711680 1 15
4.2514229 0.62518793 2.1111879 16711680 1 15
4.0658636 0.56680632 2.137548 16711680 1 15
4.2028084 0.50354403 2.4949214 16711680 1 15
4.2052789 0.51598382 2.3705683 16711680 1 15
4.5989676 0.46507517 3.0540593 16711680 1 15
4.0067062 0.66620708 1.5181757 16711680 1 15
4.0801544 0.45459005 2.4142478 16711680 1 15
5.0240388 0.5866695 2.9006705 16711680 1 15
4.1938868 0.56644952 2.0157094 16711680 1 15
3.9642389 0.42959309 2.3300877 16711680 1 15
4.0204296 0.41648003 2.4416108 16711680 1 15
4.452302 0.45178017 2.7694049 16711680 1 15
3.9619758 0.60948372 1.5635518 16711680 1 15
4.1681142 0.53296959 2.0529368 16711680 1 15
4.0628142 0.49926141 2.0802021 16711680 1 15
4.0778308 0.49364462 2.1136236 16711680 1 15
4.2478361 0.64469272 1.6389835 16711680 1 15
4.2516932 0.5734818 1.852206 16711680 1 15
4.056952 0.49094781 1.9764684 16711680 1 15
5.6572475 0.56479001 3.3130634 16711680 1 15
4.2158184 0.60857791 1.5620297 16711680 1 15
4.1477962 0.580823 1.6023146 16711680 1 15
4.599195 0.34982398 2.9627626 16711680 1 15
4.6363072 0.40593818 2.6727653 16711680 1 15
4.0409212 0.29023793 2.5811365 16711680 1 15
4.0878224 0.409172 1.5339822 16711680 1 15
4.6495976 0.28067282 2.2328744 16711680 1 15
4.1062846 0.38984394 1.3865846 16711680 1 15
3.9696631 0.28867882 1.650001 16711680 1 15
4.0699286 0.32773173 1.4160848 16711680 1 15
4.4514089 0.068589441 2.3753123 16711680 1 15
4.1032143 0.17656319 1.6381066 16711680 1 15
4.4550428 0.10613852 2.1096716 16711680 1 15
4.2759991 0.038585521 2.2555771 16711680 1 15
4.1310296 -0.0078678904 2.3534408 16711680 1 15
4.4092584 -0.0031660609 2.495611 16711680 1 15
4.0696712 0.058965206 2.0029891 16711680 1 15
4.2771354 0.051254913 2.1532652 16711680 1 15
4.1019058 0.072630987 1.9128683 16711680 1 15
4.2147818 -0.0058778049 2.2648141 16711680 1 15
4.2530775 -0.023822593 2.357866 16711680 1 15
4.2713437 -0.039998773 2.4308598 16711680 1 15
4.1361742 0.12056313 1.6394455 16711680 1 15
4.279983 0.12361664 1.697181 16711680 1 15
4.0671701 0.0274413 1.9435097 16711680 1 15
4.2089062 -0.089764372 2.4543345 16711680 1 15
4.1980829 -0.10289613 2.5034304 16711680 1 15
4.0574765 0.077230521 1.701112 16711680 1 15
4.2464676 -0.066497289 2.3241074 16711680 1 15
3.9356275 0.036714859 1.7422553 16711680 1 15
4.5723567 0.02825602 2.0656071 16711680 1 15
4.3284602 -0.045506768 2.2207525 16711680 1 15
4.1194177 -0.072886072 2.2238591 16711680 1 15
4.1068959 0.089682654 1.5656408 16711680 1 15
3.7998102 -0.0091880038 1.7914993 16711680 1 15
3.899802 0.020017965 1.673183 16711680 1 15
4.0004668 0.0014441174 1.7839633 16711680 1 15
4.060935 -0.045636076 1.986071 16711680 1 15
4.0905895 0.046874635 1.5995868 16711680 1 15
3.8540277 -0.04393357 1.8323077 16711680 1 15
3.9066036 0.038858917 1.4988891 16711680 1 15
3.4349828 -0.13821633 1.9490753 16711680 1 15
4.5244646 -0.17275071 2.5282881 16711680 1 15
4.1121359 -0.031482767 1.7851762 16711680 1 15
4.0506406 -0.0067173969 1.6134065 16711680 1 15
4.2408791 -0.22850037 2.4930928 16711680 1 15
4.0272202 -0.09398032 1.805674 16711680 1 15
4.053628 -0.04485758 1.5870534 16711680 1 15
4.3203878 -0.32153937 2.4490592 16711680 1 15
4.4624343 -0.41049245 2.8035946 16711680 1 15
3.8983948 -0.13167331 1.5842488 16711680 1 15
5.0181437 -0.34754145 2.6701498 16711680 1 15
4.1878915 -0.35413507 2.4037697 16711680 1 15
4.2599897 -0.4492873 2.7025924 16711680 1 15
3.8243713 -0.40024647 2.3103442 16711680 1 15
4.4227238 -0.49437785 2.763859 16711680 1 15
3.4553115 -0.2156772 1.337406 16711680 1 15
3.9149523 -0.4304589 2.1745536 16711680 1 15
4.2003832 -0.4501366 2.2885797 16711680 1 15
4.0975237 -0.46614644 2.3296237 16711680 1 15
3.0765989 -0.20821035 1.2111194 16711680 1 15
3.4041369 -0.21455564 1.2866139 16711680 1 15
3.3963323 -0.22129866 1.310365 16711680 1 15
3.9921606 -0.43724796 2.1568284 16711680 1 15
5.1854463 -0.5029338 2.5583332 16711680 1 15
3.9023943 -0.43249941 2.0729296 16711680 1 15
3.9722097 -0.44209635 2.1177795 16711680 1 15
3.3305905 -0.23137417 1.2454193 16711680 1 15
3.6638103 -0.46931934 2.1211514 16711680 1 15
3.2770226 -0.2279613 1.1864003 16711680 1 15
3.2964077 -0.25906178 1.300549 16711680 1 15
3.8245006 -0.5049057 2.1171191 16711680 1 15
4.4647646 -0.6029349 2.504895 16711680 1 15
3.35623 -0.30878493 1.3500217 16711680 1 15
3.3017867 -0.28539699 1.2193674 16711680 1 15
4.393106 -0.63146859 2.4765344 16711680 1 15
3.9618945 -0.61033076 2.2718821 16711680 1 15
3.2629569 -0.32356128 1.2223866 16711680 1 15
3.9303696 -0.61321527 2.2288711 16711680 1 15
3.3463998 -0.34388202 1.2527328 16711680 1 15
3.312959 -0.36128691 1.3104383 16711680 1 15
2.9978287 -0.34179118 1.2008835 16711680 1 15
3.2907944 -0.38041657 1.2929285 16711680 1 15
3.5309579 -0.5576328 1.9050559 16711680 1 15
2.8080773 -0.36178133 1.2011863 16711680 1 15
4.4467225 -0.73240811 2.4068933 16711680 1 15
3.2546718 -0.35553378 1.1170251 16711680 1 15
3.4181912 -0.45790502 1.3374356 16711680 1 15
3.3604314 -0.46997073 1.2951134 16711680 1 15
3.2880881 -0.48768151 1.3639115 16711680 1 15
4.1384997 -0.62504995 1.6900373 16711680 1 15
4.2149801 -0.92503536 2.5990644 16711680 1 15
3.6311269 -0.46913004 1.1222831 16711680 1 15
4.0090013 -0.48532966 1.0594089 16711680 1 15
4.2227621 -0.88618964 2.3822169 16711680 1 15
2.7535267 -0.21449177 0.051924098 16711680 1 15
3.7771962 -0.86047852 2.210345 16711680 1 15
3.4042034 -0.54592979 1.1488646 16711680 1 15
1.8739591 -0.5112319 1.3600165 16711680 1 15
1.919771 -0.52993053 1.4097666 16711680 1 15
3.9827895 -0.97946101 2.3982337 16711680 1 15
1.9292827 -0.62853092 1.6823225 16711680 1 15
1.8139896 -0.49657607 1.2499611 16711680 1 15
1.8387275 -0.49961621 1.228434 16711680 1 15
1.8289084 -0.53716898 1.357959 16711680 1 15
1.8943961 -0.49789226 1.1784419 16711680 1 15
1.8659577 -0.50255132 1.2063596 16711680 1 15
1.718631 -0.51253176 1.2849642 16711680 1 15
1.6880254 -0.61748397 1.6352788 16711680 1 15
1.7443688 -0.51623309 1.2648158 16711680 1 15
1.6375284 -0.51485133 1.2950249 16711680 1 15
1.5821398 -0.54621571 1.4200115 16711680 1 15
1.6480005 -0.54223716 1.3643433 16711680 1 15
1.6565968 -0.5564872 1.3872144 16711680 1 15
1.595142 -0.61466217 1.5934381 16711680 1 15
1.6618057 -0.63163906 1.6259012 16711680 1 15
1.643919 -0.5066942 1.1978458 16711680 1 15
1.6691813 -0.51200581 1.2083457 16711680 1 15
1.6118195 -0.5138694 1.2395763 16711680 1 15
1.6545125 -0.52545583 1.2615697 16711680 1 15
1.5707328 -0.52522773 1.2905312 16711680 1 15
1.6596768 -0.5202843 1.2190144 16711680 1 15
1.587458 -0.52805203 1.272247 16711680 1 15
1.6874262 -0.61663222 1.5300522 16711680 1 15
1.6283509 -0.61810178 1.5526592 16711680 1 15
1.5813558 -0.56837189 1.3900374 16711680 1 15
2.9861729 -0.60999823 0.94221669 16711680 1 15
1.5696385 -0.58137864 1.4166303 16711680 1 15
1.5664377 -0.52286524 1.1961241 16711680 1 15
1.6055263 -0.60058904 1.3849483 16711680 1 15
1.6383569 -0.67334223 1.5976322 16711680 1 15
2.0407369 -0.56014538 1.0036483 16711680 1 15
2.7875943 -0.45191082 0.031529989 16711680 1 15
1.6206523 -0.66361964 1.534725 16711680 1 15
1.6738375 -0.69696724 1.6150647 16711680 1 15
1.6008667 -0.59046233 1.288065 16711680 1 15
1.8456556 -0.54831707 0.97916555 16711680 1 15
1.8249856 -0.59061235 1.123462 16711680 1 15
1.542235 -0.56595719 1.1920859 16711680 1 15
1.5346329 -0.57465029 1.2251103 16711680 1 15
1.6133881 -0.67245609 1.5050237 16711680 1 15
1.5180106 -0.57526988 1.2135231 16711680 1 15
2.1136494 -0.66792786 1.2160692 16711680 1 15
1.4952519 -0.5943526 1.2948312 16711680 1 15
1.5448585 -0.57421213 1.1724668 16711680 1 15
1.4999292 -0.60483396 1.3098931 16711680 1 15
1.5130935 -0.64029109 1.3970324 16711680 1 15
1.5321118 -0.6412921 1.3689044 16711680 1 15
1.3390064 -0.62666065 1.3381629 16711680 1 15
2.2574322 -0.90249854 1.4616185 16711680 1 15
2.1183589 -0.87173587 1.4333704 16711680 1 15
0.86296356 -0.60179031 1.4369808 16711680 1 15
0.88936579 -0.63928807 1.5118886 16711680 1 15
2.0146866 -0.85891855 1.4155838 16711680 1 15
4.931766 0.87681425 3.147908 65280 2 15
4.4307418 0.77273124 2.5174382 65280 2 15
4.3537402 0.91834378 1.5449436 65280 2 15
4.4468884 0.8763389 1.5288934 65280 2 15
4.1984162 0.61785793 2.2718158 65280 2 15
4.7064962 0.7674135 2.0859962 65280 2 15
4.0330153 0.54778278 2.0851007 65280 2 15
3.9143095 0.63614923 1.5028399 65280 2 15
3.8609281 0.60820794 1.5560528 65280 2 15
4.1833787 0.70927101 1.3899719 65280 2 15
4.0284386 0.49488562 2.0331099 65280 2 15
3.6545501 0.49119478 1.4648749 65280 2 15
3.8292885 0.50264901 1.5841917 65280 2 15
2.2074749 0.53278697 0.11081858 65280 2 15
3.9076173 0.62694818 0.68574554 65280 2 15
4.1159549 0.3892327 1.5190051 65280 2 15
3.9230433 0.30601209 1.3748795 65280 2 15
4.0125952 0.38446698 0.7238428 65280 2 15
3.1692884 -0.19430152 1.2289419 65280 2 15
3.2277093 -0.24506955 1.2621459 65280 2 15
3.3777738 -0.31275421 1.3429366 65280 2 15
3.9178088 -0.46389771 1.6987373 65280 2 15
3.2675307 -0.37961325 1.3239383 65280 2 15
3.6041455 -0.50372142 1.6533232 65280 2 15
3.0190458 -0.35714298 0.71437484 65280 2 15
2.1047993 -0.64733452 1.6883856 65280 2 15
1.6997445 -0.57042974 1.4913818 65280 2 15
1.8121401 -0.47535181 1.0885491 65280 2 15
1.604454 -0.60836828 1.5600442 65280 2 15
1.6329745 -0.62583023 1.5217685 65280 2 15
1.9661591 -0.54734355 1.0709234 65280 2 15
1.8198371 -0.53949207 1.112532 65280 2 15
2.0401607 -0.55861819 1.0156928 65280 2 15
1.5838612 -0.64772385 1.5342093 65280 2 15
2.0036023 -0.56228518 0.98821807 65280 2 15
1.5554174 -0.66754365 1.5635562 65280 2 15
1.6103691 -0.68762922 1.5987042 65280 2 15
1.5752895 -0.47773412 0.82800579 65280 2 15
1.5559952 -0.57733178 1.1919039 65280 2 15
1.5806844 -0.50234783 0.81957304 65280 2 15
1.4126843 -0.61900854 1.3376012 65280 2 15
1.5374827 -0.53469926 0.82170033 65280 2 15
1.3339219 -0.62747538 1.3400649 65280 2 15
