# .PCD v0.7 - Point Cloud Data file format
VERSION 0.7
FIELDS x y z rgb KF lvl
SIZE 4 4 4 4 4 4
TYPE F F F I I I
COUNT 1 1 1 1 1 1
WIDTH 208
HEIGHT 1
VIEWPOINT 0 0 0 1 0 0 0
POINTS 208
DATA ascii
0.29820153 0.19918527 0.002203912 -16777216 0 1
0.27956098 0.16876236 -0.016624702 -16777216 0 1
-0.066609152 0.025826629 -0.013199513 -16777216 0 1
0.11926504 0.14756149 0.013988569 -16777216 0 1
-0.087714747 0.014278664 0.012097511 -16777216 0 1
1.0665057 -0.42468774 -0.044439588 -16777216 0 1
0.26604643 0.08629626 0.054030225 -16777216 0 1
-0.24724391 0.45033133 0.010069935 -16777216 0 1
0.3210628 0.044721942 -0.011844813 -16777216 0 1
1.036731 -0.44865045 -0.0049803313 -16777216 0 1
0.30497998 0.059209466 0.0045794118 -16777216 0 1
0.14548635 0.056586225 0.091693528 -16777216 0 1
0.3644779 0.085848331 -0.0032258444 -16777216 0 1
-0.19618984 0.013659808 -0.030292885 -16777216 0 1
0.085345827 0.18727124 -0.04549985 -16777216 0 1
-0.14166796 0.10881467 -0.023078036 -16777216 0 1
-0.10577668 0.16965313 -0.018594736 -16777216 0 1
0.66495222 -0.44918093 0.034864888 -16777216 0 1
0.39965132 0.13624185 0.0059256572 -16777216 0 1
-0.16801456 0.11768438 -0.018328093 -16777216 0 1
-0.1278456 0.15554117 -0.038262904 -16777216 0 1
-0.19885877 0.09449742 -0.034111407 -16777216 0 1
-1.4408084 -0.015639476 0.088380843 -16777216 0 1
0.34859481 0.14594068 0.0017014632 -16777216 0 1
-1.3790828 0.0021438727 0.0078813573 -16777216 0 1
0.18367916 0.10119613 -0.024914606 -16777216 0 1
0.34935871 0.21097863 -0.014287783 -16777216 0 1
-0.21563838 0.19125591 -0.017074775 -16777216 0 1
0.42307848 0.028127532 -0.021495694 -16777216 0 1
-1.4307405 -0.32503647 -0.097665608 -16777216 0 1
-1.3881993 -0.32825735 0.05997121 -16777216 0 1
0.543244 0.3579132 0.071021847 -16777216 0 1
-1.4176316 -0.31839535 0.062336795 -16777216 0 1
0.63336426 -0.44517073 0.093867607 -16777216 0 1
0.36621684 0.18262105 -0.0061018704 -16777216 0 1
0.4318873 0.050265674 0.0046811025 -16777216 0 1
0.39786756 0.039635371 0.017291991 -16777216 0 1
0.24592528 0.12913185 0.21744826 -16777216 0 1
0.59837317 -0.33962628 0.0009567081 -16777216 0 1
1.0299896 -0.45554626 -0.17450231 -16777216 0 1
-1.4001149 -0.23027937 -0.014640538 -16777216 0 1
-0.19844446 -0.74881178 -0.063222498 -16777216 0 1
-1.4070967 -0.042007226 0.028116519 -16777216 0 1
0.72897905 -0.34209725 0.0003742089 -16777216 0 1
-0.014482465 0.11199482 0.036852263 -16777216 0 1
-1.3254143 -0.71488518 -0.097229674 -16777216 0 1
0.56725478 0.25637397 0.014650051 -16777216 0 1
0.68352127 0.27620351 0.011310613 -16777216 0 1
-1.5334245 0.400444 -0.30177018 255 3 2
-0.20620549 0.21652542 -0.11527245 255 3 2
0.38264552 0.15740687 0.0053757518 255 3 2
-1.3805625 0.058893431 0.029862184 255 3 2
-0.16728167 0.068122774 -0.12451195 255 3 2
0.275381 0.037974343 0.07017234 255 3 2
-0.19754902 -0.041995049 -0.10566673 255 3 2
-1.3608348 -0.30975214 0.017753128 255 3 2
-1.2062933 -0.30424196 0.015775375 255 3 2
-1.3834196 -0.38966608 -0.018564953 255 3 2
0.6014697 -0.35125205 0.023004204 255 3 2
-0.72073323 -0.52205718 0.32447711 255 3 2
0.57104957 -0.48630661 0.037225489 255 3 2
-0.24881938 0.45136347 -0.00532792 16711680 1 2
0.5413534 0.35793823 0.034457091 16711680 1 2
0.540483 0.33334008 0.025277803 16711680 1 2
-1.5229121 0.41617101 -0.22452611 16711680 1 2
0.58360052 0.27015862 0.023553947 16711680 1 2
0.74205768 0.28348628 0.0035602469 16711680 1 2
0.57532096 0.25647217 0.0048649344 16711680 1 2
0.39077327 0.23446651 -0.038051121 16711680 1 2
0.33473882 0.2136824 0.0092172073 16711680 1 2
0.35252202 0.20608085 0.0041765543 16711680 1 2
0.42526388 0.20903449 -0.0030323414 16711680 1 2
-0.21740827 0.19921355 -0.015827548 16711680 1 2
0.29861185 0.19434573 0.012782643 16711680 1 2
0.33411619 0.18808863 0.0043958575 16711680 1 2
0.3882637 0.18964437 -0.0021673294 16711680 1 2
-0.094152041 0.1719092 0.022828033 16711680 1 2
0.094941936 0.17767753 -0.0035709634 16711680 1 2
0.29824167 0.17559551 0.016984697 16711680 1 2
0.36993423 0.18067129 -0.0014817606 16711680 1 2
-0.20310205 0.18492913 -0.080546431 16711680 1 2
0.25389308 0.16726582 0.012021114 16711680 1 2
-0.13103673 0.16688903 -0.037936643 16711680 1 2
-0.096467845 0.15739101 0.0074294894 16711680 1 2
0.18825921 0.17572029 -0.076185927 16711680 1 2
0.28009933 0.16137479 -0.0019552321 16711680 1 2
-0.15481764 0.15467443 -0.022316387 16711680 1 2
0.13524915 0.16196886 -0.055160597 16711680 1 2
0.079203837 0.13852215 0.015361647 16711680 1 2
0.19989306 0.14434519 -0.012497561 16711680 1 2
0.26224241 0.14186491 0.0066609853 16711680 1 2
0.30645224 0.14221868 0.010170814 16711680 1 2
0.35103372 0.14463508 0.0030391365 16711680 1 2
-0.16071457 0.13335323 -0.009003886 16711680 1 2
0.23542595 0.13532573 -0.0043306989 16711680 1 2
0.12159693 0.12365704 0.0014412422 16711680 1 2
0.19006753 0.13081467 -0.031425677 16711680 1 2
0.28843144 0.12719825 -0.0056926594 16711680 1 2
0.32393542 0.12580571 0.0049783131 16711680 1 2
0.39586458 0.12953888 -0.005837556 16711680 1 2
-0.017371753 0.11340348 0.0056498228 16711680 1 2
0.077667139 0.11577257 -0.0018225156 16711680 1 2
0.42226356 0.11949538 0.0049693175 16711680 1 2
-0.201538 0.1120136 -0.037135001 16711680 1 2
-0.1399111 0.11336979 -0.043538444 16711680 1 2
0.0055610081 0.10945457 -0.020932086 16711680 1 2
-0.16518101 0.10317715 -0.036027029 16711680 1 2
-0.051612023 0.11611586 -0.11434672 16711680 1 2
0.1917686 0.097599104 0.0079688905 16711680 1 2
0.27056566 0.09863615 0.0065915426 16711680 1 2
0.32346091 0.098034896 0.013928952 16711680 1 2
0.36881629 0.10516378 -0.02209655 16711680 1 2
-0.19426848 0.096080393 -0.047751401 16711680 1 2
0.23510984 0.082254648 -0.00207242 16711680 1 2
0.27048534 0.080495939 0.011395494 16711680 1 2
0.32318324 0.079939626 0.020632613 16711680 1 2
0.38598019 0.084911048 -0.0047272723 16711680 1 2
-0.074512236 0.076297998 -0.029289244 16711680 1 2
0.34979993 0.073878743 0.0072302823 16711680 1 2
0.14657371 0.066510491 -0.018331928 16711680 1 2
0.36834213 0.071453661 -0.023314858 16711680 1 2
-0.24873956 0.048550524 0.024317238 16711680 1 2
-0.095016763 0.052279387 0.0042700511 16711680 1 2
0.11915587 0.059736215 -0.033638161 16711680 1 2
0.20282088 0.044968519 0.063994728 16711680 1 2
0.3053976 0.054611828 0.01919876 16711680 1 2
-0.11967802 0.05047635 -0.03774485 16711680 1 2
0.094803318 0.04746886 -0.010239102 16711680 1 2
0.43145669 0.053831454 -0.022023028 16711680 1 2
-0.24942695 0.031817205 0.019010406 16711680 1 2
0.32278478 0.036370758 0.024136472 16711680 1 2
0.40175837 0.036397684 0.03191096 16711680 1 2
-0.065978587 0.032920837 -0.036818407 16711680 1 2
0.42929775 0.023375705 0.011236339 16711680 1 2
-0.19839141 0.01427267 -0.034699515 16711680 1 2
-1.4286748 -0.0057458556 0.040590357 16711680 1 2
-1.3894844 -0.0018769301 -0.0010397561 16711680 1 2
-1.4684597 -0.015792165 0.042846911 16711680 1 2
-1.5420775 -0.035903852 0.13250279 16711680 1 2
-1.4119759 -0.044595592 0.020018619 16711680 1 2
-1.526512 -0.065978974 0.11106774 16711680 1 2
-1.4479514 -0.059103571 -0.031584501 16711680 1 2
-1.4745513 -0.08374057 0.1011831 16711680 1 2
-1.3867947 -0.101176 0.15859383 16711680 1 2
-1.3911244 -0.14507955 0.093215585 16711680 1 2
-1.4485164 -0.13315018 -0.040996738 16711680 1 2
-1.4322752 -0.16441736 0.073263273 16711680 1 2
-1.4874594 -0.19596469 0.19879116 16711680 1 2
-1.5828639 -0.18458585 0.0089626778 16711680 1 2
-1.4963697 -0.21975216 0.11424544 16711680 1 2
-1.4970467 -0.2471125 0.20032927 16711680 1 2
-1.4106455 -0.22868763 -0.036600307 16711680 1 2
-1.4791911 -0.26030624 0.096140422 16711680 1 2
-1.4987427 -0.27918518 0.069879137 16711680 1 2
-1.4461225 -0.31632718 0.023745865 16711680 1 2
-1.3873881 -0.31503913 0.065406881 16711680 1 2
-1.353339 -0.32278612 -0.0012177763 16711680 1 2
-1.4411981 -0.3358466 -0.0089152232 16711680 1 2
0.59803057 -0.34681037 0.012068693 16711680 1 2
0.73607033 -0.3481406 -0.021010544 16711680 1 2
0.74984825 -0.37402785 0.016428307 16711680 1 2
0.89427143 -0.41882536 0.005032253 16711680 1 2
1.0120755 -0.45181459 -0.068792924 16711680 1 2
0.5651685 -0.448443 0.026561886 16711680 1 2
0.64314687 -0.4506712 -0.0032122098 16711680 1 2
0.66807967 -0.44993812 0.019007698 16711680 1 2
0.68071401 -0.44803843 0.05684755 16711680 1 2
-0.61390436 -0.48560113 0.40625861 16711680 1 2
0.53819621 -0.4721337 0.03879258 16711680 1 2
0.55393726 -0.51112312 0.086612627 16711680 1 2
-1.3238519 -0.72394681 -0.10389629 16711680 1 2
-0.84881985 -0.62844986 0.34520581 16711680 1 2
-0.74344158 -0.77113062 -0.057994016 16711680 1 2
-1.3104316 -0.88381261 -0.16122356 16711680 1 2
-0.74964517 -0.73314005 0.36784592 16711680 1 2
-0.19236828 -0.7503565 -0.057552308 16711680 1 2
-0.81294084 -0.69625348 0.8481186 16711680 1 2
-1.2168509 -0.88520139 -0.012587637 16711680 1 2
-0.75784814 -0.68487674 0.98234731 16711680 1 2
-0.17661704 -0.77200073 -0.030544471 16711680 1 2
-0.82328975 -0.70887244 0.93331081 16711680 1 2
-0.20217682 -0.80195606 -0.071459927 16711680 1 2
-0.50717878 -0.66150504 0.97145689 16711680 1 2
-0.52330899 -0.68330413 0.89354002 16711680 1 2
-0.53415626 -0.70359808 0.77788985 16711680 1 2
-0.53159767 -0.6889146 0.90497738 16711680 1 2
-0.55032933 -0.70163631 0.92418468 16711680 1 2
-0.5897305 -0.68854994 1.0940124 16711680 1 2
-0.54065341 -0.67811102 1.1017435 16711680 1 2
-0.55799109 -0.70347041 0.96114957 16711680 1 2
-0.36806127 -0.67606032 0.94223946 16711680 1 2
0.020622574 -0.82708991 0.014633513 16711680 1 2
-0.53492093 -0.69215947 1.0453101 16711680 1 2
0.24273245 -0.80288917 0.12583154 16711680 1 2
0.29297978 -0.82824951 0.011174321 16711680 1 2
0.3615737 -0.80643058 0.11109176 16711680 1 2
0.025895031 -0.8372975 0.049090605 16711680 1 2
-0.23678148 0.42316985 0.06512364 65280 2 2
-0.23988143 0.39058957 0.047697131 65280 2 2
0.54457384 0.35786548 0.051512733 65280 2 2
0.57946575 0.35295483 0.072808109 65280 2 2
0.066188879 0.1428871 0.099984765 65280 2 2
0.14547428 0.15814893 0.030309288 65280 2 2
0.072181635 0.11346915 -0.01371289 65280 2 2
-1.2067381 -0.18628614 0.42604959 65280 2 2
0.89375234 -0.41495496 -0.014629667 65280 2 2
-0.30249757 -0.77595878 -0.15479922 65280 2 2
-0.19895753 -0.75261343 -0.025289003 65280 2 2
