# .PCD v0.7 - Point Cloud Data file format
VERSION 0.7
FIELDS x y z rgb KF lvl
SIZE 4 4 4 4 4 4
TYPE F F F I I I
COUNT 1 1 1 1 1 1
WIDTH 496
HEIGHT 1
VIEWPOINT 0 0 0 1 0 0 0
POINTS 496
DATA ascii
0.01519051 -0.035974797 0.21261394 -16777216 0 36
-0.12108372 -0.17213932 0.24221773 -16777216 0 36
0.064165384 -0.067542404 0.21390361 -16777216 0 36
-0.14544921 0.024407115 0.20278715 -16777216 0 36
0.059116978 -0.032814614 0.21234526 255 3 37
-0.28230152 -0.081135862 -0.13116311 255 3 37
-0.23566179 -0.077646129 -0.096425198 255 3 37
-0.076469742 -0.050934792 0.11221881 255 3 37
0.0267681 -0.037803177 0.2171644 255 3 37
0.087885641 -0.038257457 0.21387479 255 3 37
0.064479962 -0.043540992 0.21300647 255 3 37
0.05254022 -0.049239956 0.21181436 255 3 37
-0.031789184 -0.063657425 0.16589549 255 3 37
-0.148568 -0.097593941 0.029375434 255 3 37
-0.30472976 -0.13855344 -0.06682457 255 3 37
-0.0092559904 0.0045662215 0.17540711 16711680 1 37
-0.026093083 0.00036629074 0.21269648 16711680 1 37
-0.018785512 -0.0045231255 0.21281211 16711680 1 37
0.079546578 -0.013095489 0.26673022 16711680 1 37
0.017469792 -0.018735258 0.21759358 16711680 1 37
-0.088030376 -0.01611821 0.20162727 16711680 1 37
0.020395581 -0.024718584 0.21482812 16711680 1 37
0.13629904 -0.015983462 0.32677326 16711680 1 37
-0.00027149517 -0.033224016 0.18823779 16711680 1 37
0.031315085 -0.029832639 0.22061364 16711680 1 37
0.073860899 -0.032066397 0.21753755 16711680 1 37
0.12141135 -0.02001336 0.31110004 16711680 1 37
0.019411948 -0.033188015 0.21447505 16711680 1 37
0.039286472 -0.031593129 0.2286552 16711680 1 37
0.016110536 -0.036057584 0.21374135 16711680 1 37
0.035025209 -0.037408572 0.22474901 16711680 1 37
-0.03740387 -0.048654292 0.15147023 16711680 1 37
0.022395609 -0.039914012 0.21632163 16711680 1 37
0.14579052 -0.021523846 0.33737862 16711680 1 37
-0.053821962 -0.052560896 0.13504474 16711680 1 37
0.140986 -0.023261663 0.33241919 16711680 1 37
0.055469941 -0.039463211 0.24614353 16711680 1 37
-0.057628535 -0.058336709 0.13173074 16711680 1 37
0.097769953 -0.034589857 0.28969833 16711680 1 37
0.051779848 -0.046228971 0.24329557 16711680 1 37
0.049943943 -0.04903521 0.24185631 16711680 1 37
0.095068455 -0.040296432 0.28783873 16711680 1 37
0.067157552 -0.050361466 0.26032165 16711680 1 37
0.11261436 -0.04064586 0.30660397 16711680 1 37
0.10742263 -0.059542153 0.21930331 16711680 1 37
0.10413938 -0.044467822 0.29846424 16711680 1 37
0.065192468 -0.06804499 0.21341611 16711680 1 37
0.11032017 -0.046916895 0.30581662 16711680 1 37
0.11155699 -0.048512224 0.30765513 16711680 1 37
0.12871233 -0.056257877 0.32974228 16711680 1 37
0.017537327 -0.10973674 0.22155042 16711680 1 37
0.030210465 -0.098069593 0.28800851 16711680 1 37
0.015520588 -0.11983082 0.23102941 16711680 1 37
0.07353723 -0.10627657 0.2929351 16711680 1 37
-0.088857628 -0.18412748 0.25776896 16711680 1 37
-0.18261611 -0.26445451 0.15359609 16711680 1 37
0.12601964 -0.0041180924 0.23209569 65280 2 37
-0.015115402 -0.0041326988 0.21201694 65280 2 37
0.13132975 -0.0038418735 0.31108817 65280 2 37
-0.00088048575 -0.011152918 0.21374866 65280 2 37
-0.32658795 -0.048406899 -0.11337797 65280 2 37
0.1348222 -0.016905241 0.31505755 65280 2 37
0.1388351 -0.018135346 0.31997207 65280 2 37
0.1486495 -0.022354404 0.32816687 65280 2 37
0.14835654 -0.024875222 0.33523536 65280 2 37
-0.053383891 -0.12226798 0.22010362 65280 2 37
-0.17240192 -0.23607063 0.13528453 65280 2 37
0.14341845 -0.018094385 0.32513314 255 3 38
-1.3271003 -0.2133123 -1.0707828 255 3 38
-0.98649549 -0.30392382 -0.54870611 255 3 38
-0.9148019 -0.32639122 -0.46637437 255 3 38
0.1441239 -0.050151017 0.3588661 255 3 38
0.1337032 -0.058825966 0.35390413 255 3 38
0.029123086 -0.081401609 0.31274754 255 3 38
0.061407987 -0.087269709 0.30130133 255 3 38
-0.055195935 -0.14248422 0.19930387 255 3 38
0.024079788 -0.11240919 0.2646634 255 3 38
0.057709262 -0.095396921 0.30501181 255 3 38
0.10345789 -0.079546109 0.34035054 255 3 38
0.12311923 -0.075704493 0.34782073 255 3 38
-0.14421642 -0.18780945 0.1192287 255 3 38
0.0019200859 -0.12447381 0.25211856 255 3 38
-0.95560724 -0.54292154 -0.53671235 255 3 38
-0.57010692 -0.37523115 -0.21799158 255 3 38
-0.45490944 -0.32912987 -0.13375494 255 3 38
-0.26134485 -0.23134072 0.065002285 255 3 38
0.026102128 -0.12070689 0.2709296 255 3 38
0.09018302 -0.091864705 0.33131936 255 3 38
0.10455659 -0.085392207 0.34528831 255 3 38
0.13514942 -0.079617962 0.35539439 255 3 38
-0.21090327 -0.22134759 0.10117156 255 3 38
-0.017692693 -0.14416577 0.2373441 255 3 38
-0.14235178 -0.19431473 0.16956104 255 3 38
0.016231462 -0.13135298 0.27431232 255 3 38
0.073429279 -0.10248327 0.32956666 255 3 38
0.095268697 -0.098520502 0.33461156 255 3 38
0.13239619 -0.083773613 0.36347932 255 3 38
-0.072146967 -0.17923632 0.20156601 255 3 38
0.054932043 -0.11682256 0.31101406 255 3 38
-0.83542371 -0.56632519 -0.39037132 255 3 38
-0.34044725 -0.31779939 -0.004079558 255 3 38
0.017561765 -0.1405775 0.27865201 255 3 38
0.13631691 0.0087744119 0.31928313 16711680 1 38
0.16388234 0.002531063 0.34591702 16711680 1 38
0.16220722 -0.00025446477 0.34259591 16711680 1 38
0.16750696 -0.013649967 0.35117644 16711680 1 38
0.15858452 -0.017372824 0.34490624 16711680 1 38
0.16856737 -0.016157486 0.35037324 16711680 1 38
-0.84300178 -0.1278518 -0.5689984 16711680 1 38
0.15878011 -0.019360414 0.34236437 16711680 1 38
0.16070804 -0.023450995 0.3430602 16711680 1 38
-0.17138274 -0.079613641 0.018224126 16711680 1 38
-0.16644692 -0.084970221 0.028073816 16711680 1 38
0.12887706 -0.032674257 0.32147434 16711680 1 38
-0.1455511 -0.085762821 0.061721981 16711680 1 38
0.15816928 -0.028197804 0.36605483 16711680 1 38
0.14766082 -0.035005756 0.3400462 16711680 1 38
0.019217661 -0.06219602 0.23114513 16711680 1 38
0.14825942 -0.034137864 0.35378012 16711680 1 38
0.1574443 -0.031644549 0.36453477 16711680 1 38
-0.89611435 -0.23972674 -0.57219005 16711680 1 38
0.15338401 -0.033691607 0.35906544 16711680 1 38
0.15994011 -0.031965293 0.36629054 16711680 1 38
0.16645192 -0.030590352 0.37164599 16711680 1 38
0.018844184 -0.064253822 0.23444989 16711680 1 38
0.16244531 -0.032195073 0.36844853 16711680 1 38
-0.92788613 -0.25837165 -0.60362506 16711680 1 38
0.032522317 -0.063501284 0.24266766 16711680 1 38
0.16490981 -0.032340165 0.37096956 16711680 1 38
0.015377659 -0.068198465 0.22888048 16711680 1 38
0.13767076 -0.039623126 0.34558153 16711680 1 38
-0.090560481 -0.097087637 0.11376903 16711680 1 38
0.027519463 -0.066017956 0.24388157 16711680 1 38
0.042971514 -0.061787225 0.26731235 16711680 1 38
0.048012868 -0.062709026 0.26775673 16711680 1 38
0.022085242 -0.070016921 0.24444397 16711680 1 38
0.13950507 -0.04171792 0.35137546 16711680 1 38
0.15749529 -0.037325099 0.36750343 16711680 1 38
0.016835067 -0.073122799 0.23730797 16711680 1 38
-1.1591727 -0.37176853 -0.88253546 16711680 1 38
-0.059288789 -0.091987655 0.17312811 16711680 1 38
0.040186781 -0.069630846 0.25452706 16711680 1 38
0.051667061 -0.066183187 0.26767799 16711680 1 38
0.14404643 -0.042972438 0.35233551 16711680 1 38
0.15016404 -0.040842541 0.36047146 16711680 1 38
-0.024778984 -0.083958372 0.20924237 16711680 1 38
0.13684966 -0.0452375 0.34762385 16711680 1 38
-1.0077832 -0.32840058 -0.66166681 16711680 1 38
-0.016907614 -0.084230676 0.21316238 16711680 1 38
0.060564443 -0.066632725 0.27442652 16711680 1 38
0.099099725 -0.05721543 0.30743593 16711680 1 38
0.16826849 -0.039659448 0.36874875 16711680 1 38
-0.064586982 -0.097946323 0.17020893 16711680 1 38
-0.0039882623 -0.083906613 0.21846388 16711680 1 38
0.1655692 -0.040648516 0.36844683 16711680 1 38
-0.020313727 -0.08733201 0.21325801 16711680 1 38
-0.0096246731 -0.0852663 0.21986775 16711680 1 38
0.094832033 -0.059637669 0.30670381 16711680 1 38
0.16220705 -0.042753045 0.36695936 16711680 1 38
-0.57492113 -0.24525821 -0.30603677 16711680 1 38
0.045624956 -0.075571373 0.26018354 16711680 1 38
0.10844401 -0.059006169 0.31498635 16711680 1 38
-0.018928219 -0.092646934 0.20971219 16711680 1 38
0.10732716 -0.060208604 0.31438756 16711680 1 38
0.15429574 -0.044547945 0.3676393 16711680 1 38
-0.58053029 -0.25894251 -0.32497117 16711680 1 38
0.1099961 -0.059896149 0.31902593 16711680 1 38
0.14513364 -0.048456538 0.35717109 16711680 1 38
0.16121243 -0.04453329 0.36954141 16711680 1 38
0.16471626 -0.043945987 0.37121853 16711680 1 38
-0.91105121 -0.34652203 -0.55667037 16711680 1 38
0.089641444 -0.067268685 0.30233988 16711680 1 38
-12.856462 -3.6623869 -10.467222 16711680 1 38
0.055046938 -0.074757412 0.2849043 16711680 1 38
0.071201019 -0.073053934 0.28815818 16711680 1 38
0.14359647 -0.0515569 0.3552452 16711680 1 38
0.14869606 -0.049223177 0.36306843 16711680 1 38
0.16104981 -0.045652147 0.37429395 16711680 1 38
0.08974456 -0.069255576 0.30284715 16711680 1 38
0.14719485 -0.051486701 0.35800776 16711680 1 38
0.081747353 -0.072779246 0.29540893 16711680 1 38
0.10546884 -0.06601467 0.31560031 16711680 1 38
0.065160945 -0.0758228 0.29161665 16711680 1 38
0.07503286 -0.074355438 0.29498363 16711680 1 38
0.095472947 -0.068929017 0.31061241 16711680 1 38
0.10350742 -0.067078881 0.31576934 16711680 1 38
0.0556615 -0.080939375 0.27935559 16711680 1 38
0.08695899 -0.072001964 0.30499423 16711680 1 38
0.1080241 -0.06701488 0.31876329 16711680 1 38
0.11295443 -0.064789921 0.32575184 16711680 1 38
-0.21991748 -0.17115566 0.026131546 16711680 1 38
0.060673647 -0.080502152 0.28405434 16711680 1 38
0.067465268 -0.079167433 0.28739387 16711680 1 38
0.081359968 -0.072522245 0.30796406 16711680 1 38
0.086684927 -0.073468357 0.30364862 16711680 1 38
0.10667013 -0.066769309 0.32336289 16711680 1 38
0.099042937 -0.070598543 0.31844807 16711680 1 38
0.10529511 -0.067812815 0.32678655 16711680 1 38
0.1088903 -0.069498859 0.32377779 16711680 1 38
0.11463579 -0.067128375 0.33072129 16711680 1 38
0.061760597 -0.085050933 0.28432804 16711680 1 38
0.10670327 -0.072080702 0.32221186 16711680 1 38
0.14046836 -0.05899258 0.35937092 16711680 1 38
0.11997235 -0.0683764 0.33512855 16711680 1 38
0.15278102 -0.057421368 0.36536425 16711680 1 38
0.058969468 -0.089346565 0.28248042 16711680 1 38
0.10107026 -0.073688805 0.32449132 16711680 1 38
0.10830116 -0.073095188 0.32511613 16711680 1 38
0.11426548 -0.069690764 0.33493212 16711680 1 38
0.12560247 -0.06587629 0.34520197 16711680 1 38
0.12946847 -0.06508027 0.34712225 16711680 1 38
0.11816404 -0.070312448 0.33532661 16711680 1 38
0.1275446 -0.066837028 0.34474549 16711680 1 38
0.14775354 -0.059567198 0.36455891 16711680 1 38
0.16550846 -0.053600911 0.38093266 16711680 1 38
-0.02488777 -0.084283464 0.32632905 16711680 1 38
-0.058175568 -0.13556944 0.1709787 16711680 1 38
0.065381937 -0.086675912 0.2970387 16711680 1 38
0.10608416 -0.07556513 0.32401764 16711680 1 38
0.11535577 -0.071486838 0.33511785 16711680 1 38
0.12157481 -0.069271378 0.34097055 16711680 1 38
0.15923715 -0.05629611 0.37575257 16711680 1 38
0.11775214 -0.070894435 0.33948535 16711680 1 38
0.070268258 -0.085300758 0.30723655 16711680 1 38
0.09811525 -0.07986816 0.31847388 16711680 1 38
0.11817388 -0.071209744 0.34412584 16711680 1 38
0.058701038 -0.095390745 0.28608373 16711680 1 38
0.096288532 -0.0819695 0.31874707 16711680 1 38
0.10364605 -0.078517355 0.327676 16711680 1 38
0.11133154 -0.076580629 0.33211505 16711680 1 38
0.11466943 -0.075000055 0.33623892 16711680 1 38
0.054757174 -0.097235627 0.28501669 16711680 1 38
0.1563118 -0.060975052 0.37411839 16711680 1 38
0.099693581 -0.081014857 0.32697242 16711680 1 38
0.11410151 -0.076108269 0.33872616 16711680 1 38
0.12419251 -0.073110968 0.34579095 16711680 1 38
0.12827505 -0.071424358 0.35006031 16711680 1 38
0.16520678 -0.058771484 0.38185623 16711680 1 38
0.1079361 -0.076170996 0.34232879 16711680 1 38
0.11183933 -0.078278296 0.33563891 16711680 1 38
0.12252392 -0.072833732 0.34948039 16711680 1 38
-0.045053054 -0.13889368 0.1995628 16711680 1 38
0.091790743 -0.087255701 0.3164722 16711680 1 38
0.15600961 -0.06420134 0.37197676 16711680 1 38
0.11853788 -0.076945834 0.34376338 16711680 1 38
0.15886883 -0.062217358 0.37949958 16711680 1 38
0.16126484 -0.061558813 0.3810806 16711680 1 38
0.099821806 -0.082949854 0.33290124 16711680 1 38
0.10585075 -0.082237594 0.3338238 16711680 1 38
0.11384252 -0.078267999 0.34347826 16711680 1 38
0.12162417 -0.07799428 0.34561235 16711680 1 38
-0.77541667 -0.43235305 -0.38067317 16711680 1 38
-0.39300045 -0.28135309 -0.076731011 16711680 1 38
0.1021774 -0.08626914 0.32893988 16711680 1 38
0.15733811 -0.064230688 0.38073015 16711680 1 38
-0.047798913 -0.14657697 0.2025838 16711680 1 38
0.052393593 -0.10546738 0.28984243 16711680 1 38
0.12408687 -0.07744839 0.35176495 16711680 1 38
0.12798353 -0.076367907 0.3540965 16711680 1 38
0.15011197 -0.067518264 0.37487057 16711680 1 38
-0.95786667 -0.51965624 -0.5334217 16711680 1 38
-0.63575923 -0.39214936 -0.28651118 16711680 1 38
-0.55460024 -0.35659045 -0.21398962 16711680 1 38
-0.44010305 -0.30924636 -0.10947813 16711680 1 38
-0.37964261 -0.28506795 -0.062996447 16711680 1 38
-0.019744668 -0.13599792 0.23266803 16711680 1 38
0.01388742 -0.12583998 0.25119898 16711680 1 38
-1.1084634 -0.59449428 -0.65140516 16711680 1 38
-0.52670348 -0.34732875 -0.17402619 16711680 1 38
0.026220554 -0.11944085 0.26888588 16711680 1 38
0.12950119 -0.076147541 0.36157519 16711680 1 38
0.044034846 -0.11380442 0.28289941 16711680 1 38
0.050468411 -0.11007819 0.29112431 16711680 1 38
0.055840507 -0.10756762 0.29644302 16711680 1 38
-0.82375801 -0.49524468 -0.44728082 16711680 1 38
-0.49519122 -0.34821931 -0.16590504 16711680 1 38
0.06275396 -0.10658197 0.30058178 16711680 1 38
0.13928391 -0.075508706 0.36641097 16711680 1 38
0.039017212 -0.11833803 0.27905625 16711680 1 38
-0.1577557 -0.20164852 0.12518026 16711680 1 38
-0.11548275 -0.19150913 0.13769339 16711680 1 38
-0.8609094 -0.51864827 -0.44814569 16711680 1 38
-0.80275989 -0.49669853 -0.41223615 16711680 1 38
-0.55070645 -0.38654 -0.21481177 16711680 1 38
-0.33695966 -0.28539866 -0.025749333 16711680 1 38
0.063430421 -0.10916351 0.30296242 16711680 1 38
-0.19714171 -0.22436121 0.091610864 16711680 1 38
-0.16501491 -0.2109641 0.11522254 16711680 1 38
-0.058832634 -0.15901263 0.21386266 16711680 1 38
-0.041718032 -0.15091337 0.2292307 16711680 1 38
-0.18685107 -0.22408929 0.095041528 16711680 1 38
-0.80208915 -0.50584292 -0.39133188 16711680 1 38
-0.28590992 -0.26365969 0.03614353 16711680 1 38
0.055172998 -0.11362331 0.302746 16711680 1 38
0.057209753 -0.11390226 0.30160528 16711680 1 38
0.062306486 -0.11286984 0.30296427 16711680 1 38
-0.64007443 -0.44494408 -0.285 16711680 1 38
-0.50949693 -0.37590638 -0.15816338 16711680 1 38
-0.060294047 -0.17494017 0.18787901 16711680 1 38
0.043645579 -0.12457752 0.28206742 16711680 1 38
0.059895977 -0.11436124 0.30283043 16711680 1 38
0.071305387 -0.10823353 0.31499043 16711680 1 38
0.13757569 -0.080373928 0.36981025 16711680 1 38
-0.18441609 -0.22910087 0.10007308 16711680 1 38
-0.33227387 -0.3021073 -0.021037005 16711680 1 38
0.0045011663 -0.14018989 0.26142219 16711680 1 38
0.10282239 -0.096997365 0.34049508 16711680 1 38
0.13604449 -0.081625186 0.37119421 16711680 1 38
-0.28015602 -0.27588877 0.032253392 16711680 1 38
0.073007412 -0.11080423 0.31675035 16711680 1 38
-0.37239739 -0.32052335 -0.034528438 16711680 1 38
-0.036737546 -0.16252629 0.22784491 16711680 1 38
-0.81822205 -0.55219764 -0.41500464 16711680 1 38
-0.72192425 -0.50744563 -0.34433547 16711680 1 38
-0.46003875 -0.37674725 -0.11962153 16711680 1 38
-0.1213955 -0.20232826 0.17054911 16711680 1 38
-0.12045899 -0.20594253 0.1616258 16711680 1 38
0.031470437 -0.13291194 0.28439739 16711680 1 38
0.13184188 -0.086351082 0.36909667 16711680 1 38
-0.76744878 -0.53553951 -0.36684653 16711680 1 38
-0.57369477 -0.4374668 -0.21001053 16711680 1 38
-0.38115427 -0.33548659 -0.042283665 16711680 1 38
-0.033789549 -0.16431695 0.23455146 16711680 1 38
0.099410266 -0.104149 0.33676478 16711680 1 38
-0.42792258 -0.36294231 -0.080479592 16711680 1 38
-0.12687987 -0.21216521 0.15932396 16711680 1 38
-0.0043715597 -0.14977251 0.26253128 16711680 1 38
-4.2944845e-05 -0.15072013 0.25912377 16711680 1 38
0.036650501 -0.13185152 0.29154506 16711680 1 38
0.042630672 -0.12840751 0.2977241 16711680 1 38
-1.4016329 -0.86654699 -0.85858232 16711680 1 38
-0.92652529 -0.64398944 -0.50040591 16711680 1 38
-0.045195546 -0.17905012 0.22043714 16711680 1 38
-0.015829956 -0.16072237 0.25191694 16711680 1 38
0.064936005 -0.1214345 0.31593853 16711680 1 38
0.14032997 -0.086241558 0.37807661 16711680 1 38
-0.83238381 -0.59875429 -0.42039302 16711680 1 38
-0.49559638 -0.40709561 -0.11837035 16711680 1 38
-0.37993875 -0.34815994 -0.031008033 16711680 1 38
-0.094612919 -0.20128989 0.19179425 16711680 1 38
-0.079003006 -0.20115557 0.18658093 16711680 1 38
-0.05807814 -0.18728265 0.21039897 16711680 1 38
0.14297698 -0.083167903 0.38611448 16711680 1 38
-1.0515457 -0.70731229 -0.54158944 16711680 1 38
-0.83258528 -0.59898841 -0.3912113 16711680 1 38
-0.57332271 -0.45816565 -0.18259212 16711680 1 38
-0.46910137 -0.39929333 -0.092949569 16711680 1 38
0.025229987 -0.14406958 0.28587949 16711680 1 38
0.13272582 -0.091743171 0.37308961 16711680 1 38
-1.3085381 -0.85058159 -0.73606884 16711680 1 38
-0.94672674 -0.66132838 -0.46797734 16711680 1 38
-0.43124193 -0.38423473 -0.066327699 16711680 1 38
-0.074551284 -0.20392244 0.19210032 16711680 1 38
0.04005342 -0.13773137 0.29821742 16711680 1 38
-3.0580125 -1.7858751 -2.0335586 16711680 1 38
-2.3572681 -1.4150336 -1.5148904 16711680 1 38
-1.5534928 -0.98835295 -0.91643691 16711680 1 38
-0.73603284 -0.5518142 -0.30010965 16711680 1 38
-0.1046592 -0.21171494 0.19035146 16711680 1 38
-0.1008176 -0.21451069 0.18285073 16711680 1 38
-0.54565418 -0.44924134 -0.14324099 16711680 1 38
-0.40982306 -0.38520053 -0.060912278 16711680 1 38
-0.041348998 -0.18063301 0.23871416 16711680 1 38
-0.023658266 -0.17085005 0.25358185 16711680 1 38
-0.00095720217 -0.16049656 0.2681759 16711680 1 38
0.014447636 -0.15234846 0.28061548 16711680 1 38
0.13027105 -0.095643185 0.37113732 16711680 1 38
-1.0177635 -0.70816106 -0.49349925 16711680 1 38
-3.9834514 -2.3417861 -2.7079949 16711680 1 38
-1.5164517 -0.99236113 -0.87498045 16711680 1 38
-0.10168731 -0.21608798 0.19323738 16711680 1 38
-0.083194956 -0.2084524 0.20248128 16711680 1 38
-0.031083925 -0.1760301 0.25216019 16711680 1 38
-0.0081579508 -0.16570169 0.26610324 16711680 1 38
-11.29127 -6.2997708 -7.8868585 16711680 1 38
-6.8025331 -3.9011137 -4.7486596 16711680 1 38
-1.9255137 -1.2301151 -1.1834478 16711680 1 38
-0.76598281 -0.58123612 -0.30104589 16711680 1 38
-0.40610561 -0.39494163 -0.058890548 16711680 1 38
-0.093637578 -0.21694076 0.19277452 16711680 1 38
-0.0046432889 -0.16616341 0.26730189 16711680 1 38
-1.3264564 -0.91229922 -0.74764115 16711680 1 38
-0.61641556 -0.50221604 -0.18629597 16711680 1 38
-0.48873815 -0.43848041 -0.10728508 16711680 1 38
-0.42330727 -0.401391 -0.056571867 16711680 1 38
-0.075560302 -0.20770164 0.20960167 16711680 1 38
-0.06451498 -0.20139657 0.2186684 16711680 1 38
-0.020624805 -0.17514403 0.25742367 16711680 1 38
-2.1207535 -1.3561041 -1.3088257 16711680 1 38
-0.7068128 -0.55516297 -0.24731186 16711680 1 38
-0.035586346 -0.17940827 0.25723472 16711680 1 38
-0.028556798 -0.18096559 0.25164428 16711680 1 38
-1.2594457 -0.88054162 -0.67155564 16711680 1 38
-0.52031338 -0.46883175 -0.13962118 16711680 1 38
0.042471074 -0.141003 0.31257096 16711680 1 38
-78349592 -43414104 -54326524 16711680 1 38
-1.3736813 -0.95087165 -0.74776018 16711680 1 38
-0.44574946 -0.42570055 -0.072803907 16711680 1 38
-3.2960541 -2.0954409 -2.2195361 16711680 1 38
-1.0988183 -0.80478275 -0.5526309 16711680 1 38
-0.091495283 -0.22095427 0.20497181 16711680 1 38
-0.051579673 -0.19976062 0.23263858 16711680 1 38
-0.042562041 -0.19493839 0.23902307 16711680 1 38
-1.2964549 -0.92210817 -0.68588495 16711680 1 38
-0.12085696 -0.24277039 0.17684264 16711680 1 38
-49.087639 -27.829771 -32.948944 16711680 1 38
-1.0023714 -0.76229626 -0.47884446 16711680 1 38
-0.5356729 -0.48463756 -0.12684391 16711680 1 38
-0.35559013 -0.37486348 0.015718108 16711680 1 38
-0.1338757 -0.25007695 0.17201965 16711680 1 38
-0.054995913 -0.20169967 0.23747137 16711680 1 38
-0.86338627 -0.68513912 -0.37199938 16711680 1 38
-0.30671704 -0.35065475 0.049567141 16711680 1 38
-0.08304774 -0.22139214 0.21311931 16711680 1 38
-0.030566478 -0.18958892 0.25577581 16711680 1 38
0.042801723 -0.15077946 0.30675206 16711680 1 38
-5.8326496e+08 -3.3363834e+08 -3.9120643e+08 16711680 1 38
-1.9143709 -1.3193148 -1.1399385 16711680 1 38
-0.37880516 -0.39683071 -0.0036636323 16711680 1 38
-0.34808674 -0.37745088 0.021289963 16711680 1 38
-6.132658 -3.7770224 -3.9948239 16711680 1 38
-1.3129065 -0.96372122 -0.68919265 16711680 1 38
-0.5997892 -0.53798944 -0.17581064 16711680 1 38
-0.51490736 -0.48650241 -0.11256576 16711680 1 38
-0.12252829 -0.24024892 0.20040284 16711680 1 38
-0.047189716 -0.20001182 0.24861498 16711680 1 38
-0.94575536 -0.73995042 -0.4008337 16711680 1 38
-0.083618037 -0.22924122 0.2101441 16711680 1 38
-0.064278141 -0.21551129 0.22898318 16711680 1 38
-7.2237329 -4.48452 -4.7091284 16711680 1 38
-2.6588771 -1.8152742 -1.6836038 16711680 1 38
-1.475328 -1.0891757 -0.82316369 16711680 1 38
-0.8812052 -0.71249247 -0.36462072 16711680 1 38
-0.60048497 -0.53807622 -0.15479057 16711680 1 38
-0.35655123 -0.38871184 0.024302896 16711680 1 38
-0.29917943 -0.34922639 0.075517215 16711680 1 38
-0.098224714 -0.23949258 0.20029865 16711680 1 38
-0.16874912 -0.28287318 0.15109643 16711680 1 38
-0.55004412 -0.52354211 -0.13196923 16711680 1 38
-0.3006646 -0.36049294 0.066658877 16711680 1 38
-0.67090708 -0.59727502 -0.20569535 16711680 1 38
-0.62437099 -0.57181573 -0.17930171 16711680 1 38
-0.54490793 -0.52993584 -0.13806884 16711680 1 38
-0.36726442 -0.40935162 0.010217464 16711680 1 38
-0.27324462 -0.34885201 0.0824157 16711680 1 38
-0.18033448 -0.29047048 0.15168378 16711680 1 38
-0.05860332 -0.21599936 0.24063706 16711680 1 38
-1.5586523 -1.1699053 -0.85573578 16711680 1 38
-1.0835727 -0.87273276 -0.52143788 16711680 1 38
-0.10372954 -0.24542563 0.20799144 16711680 1 38
-3.2950423 -2.2272615 -1.9703089 16711680 1 38
-0.72747123 -0.63877654 -0.23519912 16711680 1 38
-0.44763541 -0.47147167 -0.055046517 16711680 1 38
-0.88928539 -0.74853277 -0.35100159 16711680 1 38
-1.1335539 -0.90558428 -0.50915045 16711680 1 38
-63.465797 -40.685822 -42.73074 16711680 1 38
0.1635606 0.0029065032 0.34479484 65280 2 38
0.12370417 -0.036656711 0.31291211 65280 2 38
0.12870327 -0.039486278 0.32786256 65280 2 38
0.11943476 -0.044860646 0.31180862 65280 2 38
0.15947875 -0.032233082 0.36705154 65280 2 38
0.036411569 -0.062075801 0.25219378 65280 2 38
0.02806109 -0.066566311 0.24432129 65280 2 38
0.13160734 -0.040966362 0.34667575 65280 2 38
0.15769675 -0.036432751 0.36976442 65280 2 38
0.039157826 -0.069333866 0.25322762 65280 2 38
0.058878168 -0.065055601 0.27900559 65280 2 38
0.034181397 -0.07686609 0.25454849 65280 2 38
0.036697015 -0.076820068 0.25426614 65280 2 38
0.1614901 -0.042305913 0.37053141 65280 2 38
-0.11650369 -0.12302046 0.1119938 65280 2 38
0.01884733 -0.08318945 0.2426969 65280 2 38
0.11297481 -0.060240373 0.32281396 65280 2 38
-54.581215 -15.735178 -44.467705 65280 2 38
-0.20677862 -0.16588908 0.019195884 65280 2 38
0.081507817 -0.073005021 0.29662836 65280 2 38
0.10123578 -0.06813284 0.31055388 65280 2 38
-0.21085455 -0.16737095 0.033015981 65280 2 38
0.08498922 -0.075473197 0.30262372 65280 2 38
0.16183287 -0.051603545 0.37655437 65280 2 38
0.15591004 -0.060667906 0.37388849 65280 2 38
0.15586357 -0.062088311 0.37907037 65280 2 38
0.15294892 -0.065617979 0.37410882 65280 2 38
0.15969217 -0.071302466 0.39536488 65280 2 38
0.15038823 -0.073957279 0.39369828 65280 2 38
0.16176854 -0.073806435 0.40016434 65280 2 38
0.15284158 -0.078166686 0.39489254 65280 2 38
-6.346735 -3.6283796 -4.2323303 65280 2 38
-2.7293813 -1.7127974 -1.7330835 65280 2 38
-2.1912955e+09 -1.2323117e+09 -1.5214176e+09 65280 2 38
-0.09163297 -0.22111912 0.20679407 65280 2 38
-0.067060269 -0.20626964 0.22721235 65280 2 38
-0.52441496 -0.49352509 -0.14628254 65280 2 38
0.1358473 -0.08583089 0.40689299 65280 2 38
-7.4193427e+08 -4.4015507e+08 -5.2909664e+08 65280 2 38
-21.676865 -13.604536 -16.471674 65280 2 38
