# .PCD v0.7 - Point Cloud Data file format
VERSION 0.7
FIELDS x y z rgb KF lvl
SIZE 4 4 4 4 4 4
TYPE F F F I I I
COUNT 1 1 1 1 1 1
WIDTH 978
HEIGHT 1
VIEWPOINT 0 0 0 1 0 0 0
POINTS 978
DATA ascii
0.016487833 0.053090665 0.0057593947 16711680 1 2
-0.38033044 0.030913964 0.0081527997 16711680 1 2
-0.081811756 0.041511469 0.010512111 16711680 1 2
-0.027085328 0.04885653 4.8612073e-05 16711680 1 2
-0.016784422 0.04357719 0.01675682 16711680 1 2
0.07323426 0.053325955 0.0069686929 16711680 1 2
-0.40717831 0.024336817 0.012721257 16711680 1 2
-0.021947518 0.04373331 0.0056867311 16711680 1 2
0.040463358 0.050128419 0.0013511904 16711680 1 2
0.10676738 0.055240214 0.00056066707 16711680 1 2
-0.45825893 0.02485184 -0.0011324751 16711680 1 2
-0.098218374 0.035711795 0.0032674754 16711680 1 2
-0.035681397 0.037723642 0.006799526 16711680 1 2
0.0096224463 0.037709266 0.013070161 16711680 1 2
0.016669778 0.040715422 0.00876782 16711680 1 2
0.037773352 0.017731968 0.076915644 16711680 1 2
-0.010272208 0.032627262 0.018030582 16711680 1 2
0.0011764118 0.037603427 0.0040743547 16711680 1 2
0.037935149 0.038922157 0.0080313478 16711680 1 2
0.079811752 0.049039584 -0.011555557 16711680 1 2
-0.06270735 0.02795733 0.0096904002 16711680 1 2
0.10105862 0.041601095 0.003198612 16711680 1 2
-0.031473294 0.029586729 0.0012492773 16711680 1 2
0.26571959 0.053410333 0.0012348738 16711680 1 2
0.26918691 0.046298586 0.0097493771 16711680 1 2
0.28732139 0.045220189 0.015137485 16711680 1 2
0.13596031 0.029018329 0.015217445 16711680 1 2
0.30067956 0.047251102 0.0041148742 16711680 1 2
0.35500416 0.057623252 -0.01141709 16711680 1 2
0.10082414 0.022796249 0.010297917 16711680 1 2
0.19708315 0.03618142 -0.0055134105 16711680 1 2
0.20427778 0.036268961 -0.0028017571 16711680 1 2
0.22881511 0.03262414 0.019864498 16711680 1 2
0.251553 0.040476535 -0.00026121916 16711680 1 2
0.32365546 0.046467792 -0.0009247571 16711680 1 2
0.36709195 0.050488751 -0.0010834992 16711680 1 2
-0.073205791 0.0087671503 0.0074225236 16711680 1 2
0.014996025 0.014334163 0.0063107284 16711680 1 2
0.047799118 0.015135409 0.013398499 16711680 1 2
0.058425087 0.018015999 0.0037721423 16711680 1 2
0.083754905 0.019879308 0.0045072115 16711680 1 2
0.14075467 0.01963374 0.01669877 16711680 1 2
0.16324259 0.026895659 0.003351023 16711680 1 2
0.22368123 0.028414614 0.013710161 16711680 1 2
0.36377952 0.049822085 -0.013666817 16711680 1 2
-0.041765027 0.0068351235 0.01126364 16711680 1 2
0.20737503 0.027738316 -0.0024832906 16711680 1 2
0.22449771 0.021792186 0.026225079 16711680 1 2
-0.055267774 0.0016977887 0.011472435 16711680 1 2
0.038873598 0.010911074 0.0014525534 16711680 1 2
0.043725614 0.0097205415 0.0046932702 16711680 1 2
0.16375621 0.021972131 -0.0083579272 16711680 1 2
0.37261117 0.045809954 -0.026226861 16711680 1 2
0.17978285 0.017958988 -0.0053563751 16711680 1 2
0.30001664 0.030311245 -0.012366483 16711680 1 2
-0.0081210108 -0.0020854503 0.0085608158 16711680 1 2
0.015273284 -0.00058474857 0.0058793616 16711680 1 2
0.29971179 0.0235832 -0.00058709958 16711680 1 2
0.31866941 0.028835837 -0.015314813 16711680 1 2
-0.052836761 -0.011644625 0.016916189 16711680 1 2
-0.045589827 -0.0092558563 0.01107219 16711680 1 2
-0.011942234 -0.0044155992 0.0021868148 16711680 1 2
-0.070961729 -0.014698158 0.01132315 16711680 1 2
0.36962369 0.026548875 -0.025275711 16711680 1 2
0.13767499 -0.0068166032 0.0026932114 16711680 1 2
0.21857233 -0.00012999312 -0.0016486271 16711680 1 2
-0.042383313 -0.024043471 0.010824569 16711680 1 2
-0.00450789 -0.02377676 0.0079139248 16711680 1 2
0.05573101 -0.020082073 0.0020359373 16711680 1 2
0.068008542 -0.015907779 -0.0060010911 16711680 1 2
0.18607166 -0.015959112 0.016338136 16711680 1 2
0.21943593 -0.0071548102 -0.0036484364 16711680 1 2
0.04977579 -0.022069851 -0.00097380491 16711680 1 2
0.072518133 -0.020559926 -0.0024482557 16711680 1 2
0.10237681 -0.019849554 0.00091124937 16711680 1 2
0.12985474 -0.016473422 -0.0067958105 16711680 1 2
-0.021885462 -0.030866055 0.0041487548 16711680 1 2
0.011563467 -0.029774208 0.0014965272 16711680 1 2
0.096971385 -0.021511091 -0.0065263151 16711680 1 2
0.22340395 -0.01495311 -0.0050823903 16711680 1 2
-0.041288827 -0.037044831 0.0079935957 16711680 1 2
0.023362527 -0.034857444 0.01217535 16711680 1 2
0.14725281 -0.024274902 -0.0030446684 16711680 1 2
-0.0035239991 -0.038002476 0.0058852457 16711680 1 2
0.071333297 -0.034708474 0.0072198892 16711680 1 2
0.10558406 -0.030561773 0.00053751399 16711680 1 2
0.045453429 -0.039603319 0.0089975232 16711680 1 2
0.095300272 -0.034554403 -0.002591484 16711680 1 2
0.015346535 -0.043305207 -0.00026854928 16711680 1 2
0.048232395 -0.04696231 0.0088323466 16711680 1 2
0.11372197 -0.050366055 -0.011995723 16711680 1 2
0.14706948 -0.056935314 -0.0066269711 16711680 1 2
0.22443432 -0.053954396 -0.0059897173 16711680 1 2
-0.069262385 -0.075007126 0.015776565 16711680 1 2
0.1528663 -0.060355939 -0.0046207458 16711680 1 2
0.20682515 -0.05876242 0.0019957193 16711680 1 2
0.25008208 -0.057063852 -0.0050080814 16711680 1 2
0.2807661 -0.052329477 -0.018630531 16711680 1 2
-0.0070078494 -0.072664194 -0.0023224321 16711680 1 2
0.041510645 -0.071913131 0.0054666717 16711680 1 2
0.099241748 -0.071650989 0.015296844 16711680 1 2
0.11693521 -0.064495832 -0.012882578 16711680 1 2
0.35536525 0.036313947 -0.37016675 16711680 1 2
-0.044204842 -0.078198254 0.0032882525 16711680 1 2
0.021259086 -0.075802073 0.00089643948 16711680 1 2
0.040034231 -0.071910366 -0.0081698531 16711680 1 2
0.052140821 -0.073411681 -0.0030022287 16711680 1 2
0.089345217 -0.072645783 -0.0015063959 16711680 1 2
0.14416587 -0.068482295 -0.0095093818 16711680 1 2
-0.0051303045 -0.080419548 0.0023014268 16711680 1 2
0.012560523 -0.08027143 0.0048885429 16711680 1 2
0.074036703 -0.078208134 0.0060374034 16711680 1 2
0.054495338 -0.083746843 0.0088258665 16711680 1 2
0.10262378 -0.079802498 0.0023257916 16711680 1 2
-0.034303669 -0.086620778 -0.0060817059 16711680 1 2
-0.018246172 -0.086743884 -0.0031341289 16711680 1 2
-0.0097876927 -0.085902102 -0.0049812808 16711680 1 2
-0.061532635 -0.098783217 0.011413907 16711680 1 2
0.0676191 -0.10106117 -0.00686152 16711680 1 2
0.097434416 -0.10353059 -0.0073552211 16711680 1 2
0.13803194 -0.1183632 0.068397172 16711680 1 2
0.19370486 -0.097727999 -0.018266201 16711680 1 2
0.0065641953 -0.10818025 -0.013383625 16711680 1 2
0.031158637 -0.11109497 0.0010483579 16711680 1 2
0.080242358 -0.10643607 -0.011987848 16711680 1 2
-0.00054336892 -0.11887838 -0.015675731 16711680 1 2
0.047201309 -0.11916634 -0.0042994949 16711680 1 2
-0.49063647 -0.25235194 0.040662255 16711680 1 2
-0.39863834 -0.24501938 0.0309308 16711680 1 2
-0.38691339 -0.24864011 0.043069225 16711680 1 2
-0.36421481 -0.24622242 0.02464189 16711680 1 2
-0.47714967 -0.25841317 0.047375195 16711680 1 2
-0.4724251 -0.25550827 0.01510517 16711680 1 2
-0.10877602 0.10561382 0.035230279 65280 2 2
-0.072739311 0.12102571 0.0090897055 65280 2 2
-0.083031408 0.088551752 0.022883445 65280 2 2
-0.10202263 0.084485434 0.011822666 65280 2 2
-0.099781752 0.060955901 0.0070885019 65280 2 2
-0.39987761 0.042874891 0.012067016 65280 2 2
-0.44094247 0.03623689 0.0067883413 65280 2 2
0.014140904 0.053732693 0.011163046 65280 2 2
-0.078984499 0.033842519 0.008541354 65280 2 2
0.0088703679 0.041837156 0.00033100124 65280 2 2
-0.069322407 0.0068168398 -0.0027802128 65280 2 2
-0.057110913 0.0027856799 0.011498304 65280 2 2
-0.10576729 -0.096393868 0.30227372 65280 2 2
0.006458343 0.0053992323 0.015970638 65280 2 2
-0.02993075 -0.032958064 0.014620277 65280 2 2
-0.062528878 -0.071301684 -0.0012311229 65280 2 2
0.11225042 -0.067140907 0.005260922 65280 2 2
-0.059058521 -0.097064242 0.011967187 65280 2 2
0.070204958 -0.10155762 -0.0090947086 65280 2 2
-0.38477534 -0.24551217 0.020861175 65280 2 2
-0.35554698 -0.24416178 0.019780399 65280 2 2
-0.39236474 -0.25047237 0.00086351048 255 3 3
0.66085553 -0.036479812 0.0041958815 16711680 1 3
0.74227953 -0.0235082 -0.03391549 16711680 1 3
0.66675574 -0.03518486 -0.013487966 16711680 1 3
0.67115116 -0.036024123 -0.036927275 16711680 1 3
0.68158525 -0.043349124 -0.023719573 16711680 1 3
0.77680969 -0.037368614 -0.06238747 16711680 1 3
0.65819299 -0.059201397 -0.0019449637 16711680 1 3
0.73058271 -0.049138632 -0.042297587 16711680 1 3
0.72530389 -0.069321066 -0.016566077 16711680 1 3
0.73214388 -0.066535413 -0.050470252 16711680 1 3
0.75301039 -0.088153996 -0.047198962 16711680 1 3
0.67881119 -0.15749197 -0.026294352 16711680 1 3
0.64191306 -0.16032913 -0.032197818 16711680 1 3
0.69809574 -0.16488276 -0.016609963 16711680 1 3
0.52025729 -0.17281425 -0.025116755 16711680 1 3
0.53997117 -0.17303362 -0.026217794 16711680 1 3
0.55749607 -0.17666152 -0.016835894 16711680 1 3
0.63153839 -0.16903165 -0.073107079 16711680 1 3
0.46969509 -0.17671575 -0.017886259 16711680 1 3
0.57975549 -0.17005332 -0.019352779 65280 2 3
0.48403922 -0.17901285 0.01224604 65280 2 3
0.54841197 -0.17473954 -0.034340549 65280 2 3
-0.49409869 -0.25582948 0.023452157 65280 2 3
-0.093941152 0.074197002 0.058457617 255 3 4
-0.5903579 -0.25933057 0.0036335995 16711680 1 4
-0.57687068 -0.25815383 0.0069835861 16711680 1 4
-0.53467065 -0.25586569 0.027565425 16711680 1 4
-0.55015498 -0.26049072 0.02884637 16711680 1 4
-0.080005512 0.25910565 0.026678974 16711680 1 5
-0.47576493 0.15697806 -0.023300325 16711680 1 5
-0.63830221 0.10394427 -0.015903128 16711680 1 5
0.64573389 -0.040398099 -0.0084996643 16711680 1 5
0.67509198 -0.041710313 -0.041050524 16711680 1 5
-0.65017432 -0.26789659 -0.010731628 16711680 1 5
-0.57142437 -0.25703815 0.016543483 65280 2 5
0.044913426 0.30870691 0.045579497 16711680 1 6
0.070599541 0.30131218 0.03859381 16711680 1 6
-0.49743059 0.011038351 -0.0089618592 16711680 1 6
-0.80030358 0.10763392 -0.0061384919 16711680 1 7
0.34731045 0.052281901 0.0061328504 16711680 1 7
0.29936138 0.045472287 0.010434035 16711680 1 7
0.36616486 0.051896051 -0.0030023728 16711680 1 7
0.21644364 -0.0044636121 -0.00034499532 16711680 1 7
0.25470337 -0.049109001 -0.016317092 16711680 1 7
0.21780466 -0.054762855 -0.010523911 16711680 1 7
0.23398173 -0.052088425 -0.020013854 16711680 1 7
0.59752733 -0.16663215 -0.049754053 255 3 9
0.61999321 -0.17257205 0.022777835 255 3 9
0.79789817 -0.1593166 -0.015594698 16711680 1 9
0.85936987 -0.15158835 -0.051095609 65280 2 9
0.85131484 0.16931862 0.014394328 16711680 1 10
1.0542186 0.20649056 -0.042236008 16711680 1 10
0.93298161 0.19164957 -0.077185236 16711680 1 10
0.93519813 0.17181095 0.0029866234 16711680 1 10
1.0688051 0.20179917 -0.0365174 16711680 1 10
1.2227902 0.24036595 -0.10285939 16711680 1 10
0.8838833 0.15132883 -0.064804614 16711680 1 10
0.90742809 0.11839067 -0.020611409 16711680 1 10
0.92176265 0.11917572 -0.017479435 16711680 1 10
0.85846364 0.091405183 0.010645705 16711680 1 10
0.9732483 0.10767572 0.0022368303 16711680 1 10
0.94415033 0.093055129 0.051161043 16711680 1 10
0.83432311 0.075760722 -0.0088643422 16711680 1 10
0.085600533 -0.18109952 0.70684206 16711680 1 10
0.088222675 -0.18180569 0.70983958 16711680 1 10
1.0073822 0.02950212 -0.031444374 16711680 1 10
1.1442776 0.044073824 -0.091056094 16711680 1 10
0.82800668 -0.034295809 -0.042074181 16711680 1 10
0.87214625 -0.056534398 -0.037740666 16711680 1 10
0.89053571 -0.073417887 -0.040697739 16711680 1 10
0.98621356 -0.10780422 -0.039052635 16711680 1 10
0.78740156 0.058518376 0.036040571 65280 2 10
0.74259883 -0.059852894 -0.059940189 65280 2 10
0.74133801 -0.064313941 -0.026505291 65280 2 10
2.1024849 0.7266016 -0.33096507 255 3 11
1.503986 -0.092153952 -0.1115298 255 3 11
2.2042451 -0.026734954 -0.86559081 255 3 11
1.398209 0.60759115 0.15233611 16711680 1 11
1.4745977 0.62896872 0.10744331 16711680 1 11
1.7040752 0.67456865 0.017070061 16711680 1 11
1.7094601 0.63534659 0.058473695 16711680 1 11
1.7126428 0.60986131 0.05027809 16711680 1 11
1.759863 0.61673242 0.066557892 16711680 1 11
1.578856 0.55161512 0.089340478 16711680 1 11
1.6694826 0.56265348 0.075450785 16711680 1 11
1.5875858 0.46833378 0.10583261 16711680 1 11
1.691249 0.4961848 0.06808801 16711680 1 11
1.6393501 0.48963237 -0.006471931 16711680 1 11
2.0254304 0.58352309 -0.10140348 16711680 1 11
1.6561682 0.45026508 0.047177482 16711680 1 11
1.689221 0.48394579 -0.062892005 16711680 1 11
1.6080813 0.43045068 -0.032489758 16711680 1 11
1.7142981 0.43666008 -0.023830879 16711680 1 11
1.8118869 0.44408146 -0.040273678 16711680 1 11
1.5574226 0.35751003 0.037995592 16711680 1 11
1.8352932 0.41701931 -0.027656585 16711680 1 11
1.6674366 0.36658981 -0.018348332 16711680 1 11
1.8858271 0.4077239 -0.10237695 16711680 1 11
2.0477033 0.44875717 -0.15655194 16711680 1 11
1.5369889 0.25546044 0.041509915 16711680 1 11
1.5958189 0.25951663 -0.0051153512 16711680 1 11
1.5611681 0.22002517 0.03135547 16711680 1 11
1.2311405 0.074036933 -0.042991236 16711680 1 11
1.561823 0.069285817 -0.064692922 16711680 1 11
1.6761738 -0.088268772 -0.069346003 16711680 1 11
1.6291475 -0.078951024 -0.17110394 16711680 1 11
1.5850067 -0.096093774 -0.11283706 16711680 1 11
1.8607553 -0.078705378 -0.23806891 16711680 1 11
1.4101866 -0.10039302 -0.11866052 16711680 1 11
1.9239479 -0.094512776 -0.20827703 16711680 1 11
1.3729739 -0.10697857 -0.12070839 16711680 1 11
1.6468993 0.2800937 -0.040705211 65280 2 11
1.5395036 0.22256923 0.059893977 65280 2 11
1.5310689 0.18945971 0.059566669 65280 2 11
WIDTH 409
HEIGHT 1
VIEWPOINT 0 0 0 1 0 0 0
POINTS 409
DATA ascii
-0.39090884 -0.24487163 0.014669252 -16777216 0 1
-0.076776333 0.1040356 -0.0030401219 -16777216 0 1
-0.36812812 -0.24359258 0.017168326 -16777216 0 1
-0.07127694 0.014659556 0.0016728307 -16777216 0 1
-0.46007174 0.029102599 -0.0095796809 -16777216 0 1
-0.079975061 0.074668944 -0.0091878865 -16777216 0 1
-0.094835505 0.04079508 -0.0037631039 -16777216 0 1
-0.068312392 0.12947708 -0.0021908747 -16777216 0 1
-0.098963469 0.1216627 -0.00064172631 -16777216 0 1
0.017360875 0.018620828 -0.0029547915 -16777216 0 1
-0.066970512 0.08809673 0.00011377441 -16777216 0 1
-0.076370418 0.038381904 -0.0038577537 -16777216 0 1
0.061382245 -0.070044369 -0.010790377 -16777216 0 1
0.029468561 -0.10499767 -0.0048113824 -16777216 0 1
0.21919829 -0.002376484 -0.0085483324 -16777216 0 1
0.11134685 -0.066637196 0.000392577 -16777216 0 1
0.22980426 -0.050589155 -0.010696501 -16777216 0 1
0.065696426 -0.1004637 -0.0054922104 -16777216 0 1
-0.41041437 0.036044642 -0.014796061 -16777216 0 1
0.12280959 -0.064839803 -0.0043952847 -16777216 0 1
0.0012126223 -0.017725598 -0.0089093223 -16777216 0 1
-0.067743458 -0.085222103 -0.011912735 -16777216 0 1
-0.02086051 -0.0283422 -0.0031887859 -16777216 0 1
-0.065118 -0.096702583 0.0036147784 -16777216 0 1
0.22315399 -0.062042315 -0.012102033 -16777216 0 1
0.037709843 0.19002579 -0.0012865858 -16777216 0 1
0.022284294 0.20331876 -0.0049250019 -16777216 0 1
0.030423041 -0.027970018 -0.0067234808 -16777216 0 1
0.23395105 -0.0399547 -0.017642953 -16777216 0 1
0.10985345 -0.050650183 -0.003344012 -16777216 0 1
0.016018419 -0.076949008 -0.0069479467 -16777216 0 1
-0.061825372 -0.068456545 -0.0075414027 -16777216 0 1
-0.48145306 0.19630843 -0.0064139613 16711680 1 2
-0.45694017 0.20424743 -0.02331366 16711680 1 2
0.24331956 0.24000083 0.011165518 16711680 1 2
-0.47464123 0.19987264 -0.021475719 16711680 1 2
0.12063628 0.21249045 0.0011739255 16711680 1 2
0.042773716 0.1973709 0.00028610756 16711680 1 2
0.11346602 0.20716013 -0.00046931842 16711680 1 2
0.025249826 0.19447647 -0.0068218983 16711680 1 2
0.037877195 0.18729617 0.0015501906 16711680 1 2
-0.082123637 0.1263252 -0.002060246 16711680 1 2
-0.076302946 0.12378256 0.0037827471 16711680 1 2
-0.067821495 0.12649022 -0.00010578091 16711680 1 2
-0.098022684 0.11546595 0.0014157197 16711680 1 2
-0.06341435 0.13264197 -0.028694974 16711680 1 2
-0.35022995 0.1012661 -0.0089033945 16711680 1 2
-0.46778014 0.10142711 -0.019745445 16711680 1 2
-0.35205272 0.092254989 -0.0077987881 16711680 1 2
-0.075352535 0.10023108 0.0016175325 16711680 1 2
-0.099827014 0.094708711 -0.00668348 16711680 1 2
-0.064408273 0.090177633 -0.011568656 16711680 1 2
-0.081827745 0.073499799 0.0028143835 16711680 1 2
-0.46037668 0.064286985 -0.01032564 16711680 1 2
-0.42310777 0.065468654 -0.022058628 16711680 1 2
-0.083787449 0.070582509 -0.0042392276 16711680 1 2
-0.39891854 0.049438197 -0.010064093 16711680 1 2
-0.095133528 0.051797371 0.011736148 16711680 1 2
0.055812441 0.067104742 -0.0028302281 16711680 1 2
-0.4600367 0.045119453 -0.0088061541 16711680 1 2
-0.44957644 0.07317581 -0.081305496 16711680 1 2
-0.04816046 0.056596819 -0.0018022346 16711680 1 2
0.10105493 0.067247719 -0.0016811964 16711680 1 2
0.021193894 0.058092732 -0.0060714264 16711680 1 2
-0.38121 0.037759993 -0.0092055956 16711680 1 2
-0.078742027 0.045716874 0.00033384984 16711680 1 2
-0.022958679 0.053818837 -0.011879143 16711680 1 2
-0.01269341 0.048067674 0.0056487932 16711680 1 2
0.075719029 0.054753799 0.0030435175 16711680 1 2
-0.40871063 0.031413727 -0.0054942612 16711680 1 2
-0.018051891 0.048162181 -0.005110478 16711680 1 2
0.04543585 0.055006828 -0.010386352 16711680 1 2
0.11488809 0.061584339 -0.016025275 16711680 1 2
-0.46123287 0.033080462 -0.022713237 16711680 1 2
-0.095672406 0.039369766 -0.005621315 16711680 1 2
-0.031774271 0.042349409 -0.0047813081 16711680 1 2
0.012245705 0.040645905 0.0066153044 16711680 1 2
0.024148382 0.047401033 -0.0099981567 16711680 1 2
0.039875828 0.018690452 0.073403835 16711680 1 2
-0.0064756679 0.036503892 0.0081377262 16711680 1 2
0.0052821054 0.041869279 -0.0065829349 16711680 1 2
0.045030408 0.04570986 -0.0094299391 16711680 1 2
0.08455544 0.053316727 -0.021764856 16711680 1 2
-0.059530821 0.031863872 -0.00011604203 16711680 1 2
0.1042502 0.04448729 -0.0029907683 16711680 1 2
-0.027503133 0.034094278 -0.010380923 16711680 1 2
0.26898655 0.055511769 -0.003264206 16711680 1 2
0.27598959 0.050199058 -7.5249751e-05 16711680 1 2
0.30527508 0.055947725 -0.013209585 16711680 1 2
0.13936807 0.031150233 0.0098731928 16711680 1 2
0.31150448 0.053122386 -0.011470636 16711680 1 2
0.35934895 0.059837811 -0.016839538 16711680 1 2
0.10488121 0.026066206 0.002273534 16711680 1 2
0.19686849 0.036238857 -0.0045824652 16711680 1 2
0.21316753 0.041536145 -0.01768015 16711680 1 2
0.22939967 0.034078706 0.018347798 16711680 1 2
0.25920209 0.044708692 -0.011754666 16711680 1 2
0.32875413 0.049103953 -0.0073832665 16711680 1 2
0.3707177 0.052231267 -0.0052939905 16711680 1 2
-0.069959968 0.012790773 -0.0035465807 16711680 1 2
0.020640057 0.019672208 -0.0083415098 16711680 1 2
0.05152509 0.018699827 0.0046283682 16711680 1 2
0.062230993 0.021269796 -0.0047339397 16711680 1 2
0.090005249 0.024957614 -0.0092197917 16711680 1 2
0.14280668 0.020447301 0.013550084 16711680 1 2
0.16257735 0.026480962 0.0054552974 16711680 1 2
0.22292885 0.028229153 0.015423859 16711680 1 2
0.36302343 0.049684081 -0.012017078 16711680 1 2
-0.035324398 0.014878253 -0.010666357 16711680 1 2
0.21302819 0.031248569 -0.011833512 16711680 1 2
0.22848138 0.023969853 0.020283667 16711680 1 2
-0.051739413 0.0055959458 0.00032327796 16711680 1 2
0.042694099 0.014063192 -0.0072719879 16711680 1 2
0.046225335 0.012128773 -0.00069867878 16711680 1 2
0.1663325 0.023914721 -0.01251656 16711680 1 2
0.3762317 0.047644388 -0.03045564 16711680 1 2
0.18399386 0.020755036 -0.012504147 16711680 1 2
0.30602303 0.033317327 -0.02087485 16711680 1 2
-0.0045410981 0.0012362014 -0.00094842166 16711680 1 2
0.020462885 0.0035886902 -0.0072016744 16711680 1 2
0.30050766 0.024143573 -0.0009145909 16711680 1 2
0.32102939 0.030141765 -0.018059589 16711680 1 2
-0.049649812 -0.0083904834 0.007049615 16711680 1 2
-0.042007919 -0.0055935537 -4.9097893e-05 16711680 1 2
-0.0077384962 -0.00038272975 -0.0096309986 16711680 1 2
-0.06799975 -0.011394834 0.0016610813 16711680 1 2
0.37882507 0.030928012 -0.037497755 16711680 1 2
0.1435494 -0.0030447892 -0.0086450726 16711680 1 2
0.22300498 0.0020356912 -0.0085160881 16711680 1 2
-0.039626323 -0.021449316 0.0028459465 16711680 1 2
0.00018703511 -0.019935202 -0.0049263295 16711680 1 2
0.059413947 -0.017564695 -0.0060175685 16711680 1 2
0.070633501 -0.014094711 -0.011389672 16711680 1 2
0.19271998 -0.012052501 0.0048630456 16711680 1 2
0.22392434 -0.0048018424 -0.010784118 16711680 1 2
0.052560784 -0.019941557 -0.0071327393 16711680 1 2
0.07254146 -0.02035426 -0.0015091016 16711680 1 2
0.10670727 -0.016534662 -0.0080632176 16711680 1 2
0.13237962 -0.014923197 -0.011281195 16711680 1 2
-0.019060418 -0.02836882 -0.0036043779 16711680 1 2
0.011347878 -0.029862501 0.0034883639 16711680 1 2
0.098825619 -0.020288911 -0.0097190309 16711680 1 2
0.22680655 -0.013136575 -0.010402719 16711680 1 2
-0.038571183 -0.034568373 2.1060598e-05 16711680 1 2
0.02862897 -0.030277837 -0.0014714416 16711680 1 2
0.15282699 -0.02089382 -0.013766334 16711680 1 2
0.00083461241 -0.034584966 -0.0059685032 16711680 1 2
0.074090213 -0.03292999 0.0016619593 16711680 1 2
0.10893486 -0.028460447 -0.0061551458 16711680 1 2
0.047393657 -0.038195238 0.0051235436 16711680 1 2
0.09885899 -0.032029271 -0.01014897 16711680 1 2
0.01703063 -0.042067643 -0.0041194893 16711680 1 2
0.053102124 -0.043929871 -0.0025375453 16711680 1 2
0.1134514 -0.050074205 -0.011108153 16711680 1 2
0.14881285 -0.055935927 -0.009631549 16711680 1 2
0.22732857 -0.052781358 -0.010486299 16711680 1 2
-0.067020938 -0.073184796 0.0085850041 16711680 1 2
0.15431295 -0.059724137 -0.0065329121 16711680 1 2
0.2080009 -0.058397505 0.00080129172 16711680 1 2
0.25077063 -0.056687627 -0.0057930443 16711680 1 2
0.28287145 -0.051393624 -0.02161414 16711680 1 2
-0.0049469615 -0.071131915 -0.0077443584 16711680 1 2
0.045805573 -0.069354489 -0.0050901813 16711680 1 2
0.10300811 -0.069402121 0.0078219399 16711680 1 2
0.11216056 -0.066672623 -0.0017349106 16711680 1 2
0.36395851 0.042409271 -0.38566306 16711680 1 2
-0.042488456 -0.076908402 -0.0013024879 16711680 1 2
0.024038473 -0.074153982 -0.0060136775 16711680 1 2
0.040741529 -0.071307227 -0.009273652 16711680 1 2
0.052049063 -0.073419213 -0.0020178321 16711680 1 2
0.092138909 -0.071332954 -0.0074192956 16711680 1 2
0.14416754 -0.067998499 -0.0093329959 16711680 1 2
-0.0026277611 -0.078691579 -0.0042856187 16711680 1 2
0.016247164 -0.077821441 -0.0049659619 16711680 1 2
0.077748507 -0.076263987 -0.0022349632 16711680 1 2
0.056633469 -0.082548551 0.0041253413 16711680 1 2
0.10528735 -0.078395084 -0.0032174448 16711680 1 2
-0.031935636 -0.084767781 -0.013352771 16711680 1 2
-0.015879929 -0.084997423 -0.010209437 16711680 1 2
-0.0068890387 -0.083819173 -0.012930867 16711680 1 2
-0.059418939 -0.097228952 0.0044363574 16711680 1 2
0.067391589 -0.10103204 -0.0060058851 16711680 1 2
0.10124747 -0.10126116 -0.016068697 16711680 1 2
0.13904691 -0.1182626 0.066583127 16711680 1 2
0.19427927 -0.097468786 -0.018893328 16711680 1 2
0.004465092 -0.10902279 -0.0070048212 16711680 1 2
0.034170654 -0.10892104 -0.0073150652 16711680 1 2
0.08420857 -0.10411499 -0.021355987 16711680 1 2
0.0024257996 -0.11722022 -0.024333265 16711680 1 2
0.04859392 -0.11859547 -0.0077400785 16711680 1 2
-0.49517712 -0.2505284 0.015806681 16711680 1 2
-0.40026963 -0.24329402 0.0095265573 16711680 1 2
-0.38827503 -0.24700278 0.021042842 16711680 1 2
-0.36494565 -0.2446218 0.0045141876 16711680 1 2
-0.48171347 -0.25669894 0.020756314 16711680 1 2
-0.4763501 -0.25382277 -0.009569006 16711680 1 2
-0.10500918 0.11245895 0.021225777 65280 2 2
-0.068518393 0.12811352 -0.0048525888 65280 2 2
-0.078942023 0.094990686 0.0089331577 65280 2 2
-0.098320626 0.091041088 -0.0025002917 65280 2 2
-0.095991291 0.067245312 -0.0077023492 65280 2 2
-0.40139225 0.051073663 -0.008126012 65280 2 2
-0.44326246 0.043962616 -0.012529875 65280 2 2
0.017415859 0.056114335 0.0042622848 65280 2 2
-0.077245325 0.036460333 0.0028378635 65280 2 2
0.016388081 0.048676305 -0.018707428 65280 2 2
-0.066546366 0.010274336 -0.011806963 65280 2 2
-0.053778548 0.0065140054 0.0011966345 65280 2 2
-0.10703737 -0.10141724 0.30932337 65280 2 2
0.0097669279 0.0085404431 0.0078214901 65280 2 2
-0.026747745 -0.030195454 0.0054717893 65280 2 2
-0.06073666 -0.069684081 -0.0066992613 65280 2 2
0.11774142 -0.064241454 -0.0064708712 65280 2 2
-0.057326563 -0.095965967 0.0070054652 65280 2 2
0.068181463 -0.10264613 -0.0035353433 65280 2 2
-0.38571614 -0.24409783 0.0022125435 65280 2 2
-0.35616124 -0.24254304 -0.0016791514 65280 2 2
-0.39358711 -0.24905138 -0.019432513 255 3 3
0.65940505 -0.037212402 0.0056840018 16711680 1 3
0.73250043 -0.025591254 -0.024878858 16711680 1 3
0.67072588 -0.034208827 -0.017635435 16711680 1 3
0.65964043 -0.038807198 -0.025245214 16711680 1 3
0.67294711 -0.045419104 -0.01538758 16711680 1 3
0.76703238 -0.039270628 -0.053365376 16711680 1 3
0.65533942 -0.059831917 0.00058532768 16711680 1 3
0.72843599 -0.049186144 -0.040773556 16711680 1 3
0.75409412 -0.063048363 -0.044691186 16711680 1 3
0.71387815 -0.07035166 -0.032969736 16711680 1 3
0.72422266 -0.093524575 -0.020143941 16711680 1 3
0.66448355 -0.15963522 -0.012700348 16711680 1 3
0.63935411 -0.16046698 -0.031128446 16711680 1 3
0.67887729 -0.16760854 0.0013242649 16711680 1 3
0.50386423 -0.17516904 -0.006152851 16711680 1 3
0.52370948 -0.1752879 -0.0079139667 16711680 1 3
0.54804301 -0.17788887 -0.0070214127 16711680 1 3
0.61369264 -0.17086194 -0.054461461 16711680 1 3
0.45730492 -0.1785752 -0.0027796908 16711680 1 3
0.56343651 -0.17226355 -0.0021778569 65280 2 3
0.48997292 -0.17839494 0.0048975642 65280 2 3
0.54017508 -0.17572218 -0.025883013 65280 2 3
-0.49898851 -0.25410393 -0.002854733 65280 2 3
-0.090134718 0.079579107 0.046113461 255 3 4
-0.59765971 -0.25772676 -0.021973738 16711680 1 4
-0.58452463 -0.25645572 -0.020708486 16711680 1 4
-0.54066765 -0.25415593 0.0017808746 16711680 1 4
-0.55676758 -0.25889659 0.0024662707 16711680 1 4
-0.072400354 0.27611405 8.2889266e-05 16711680 1 5
-0.48007828 0.17173944 -0.052417032 16711680 1 5
-0.64677334 0.11587957 -0.041470855 16711680 1 5
0.64133269 -0.041790962 -0.0040577413 16711680 1 5
0.67019039 -0.043142926 -0.036032673 16711680 1 5
-0.65962875 -0.26650721 -0.037969418 16711680 1 5
-0.57973009 -0.25522467 -0.013738316 65280 2 5
0.062516101 0.33585131 0.0053373021 16711680 1 6
0.088799633 0.32795596 -0.0017389057 16711680 1 6
-0.50167567 0.01945518 -0.032103565 16711680 1 6
-0.81479746 0.12078737 -0.03354346 16711680 1 7
0.35800651 0.057606097 -0.0080914926 16711680 1 7
0.30680856 0.049485818 3.1543506e-05 16711680 1 7
0.37232891 0.054861721 -0.010840765 16711680 1 7
0.22220729 -0.0011721663 -0.0099107409 16711680 1 7
0.25523284 -0.049009293 -0.016760573 16711680 1 7
0.21316607 -0.057005372 -0.0019063861 16711680 1 7
0.23182419 -0.052787367 -0.015880095 16711680 1 7
0.60256791 -0.16555285 -0.056739561 255 3 9
0.62854117 -0.17214745 0.011996552 255 3 9
0.79666126 -0.1594156 -0.01685567 16711680 1 9
0.77831107 -0.16210759 0.021365773 65280 2 9
0.84289163 0.16523211 0.023748869 16711680 1 10
1.0175209 0.19335012 -0.010856549 16711680 1 10
0.84854215 0.16037902 0.0017979832 16711680 1 10
0.94725394 0.175978 -0.0051433179 16711680 1 10
1.0068915 0.17958285 0.014385968 16711680 1 10
1.0893047 0.19474079 -0.00011918134 16711680 1 10
0.85129935 0.13935801 -0.03263716 16711680 1 10
0.8976596 0.1145367 -0.011145828 16711680 1 10
0.90717876 0.11368151 -0.0041175764 16711680 1 10
0.85555649 0.090102926 0.014024462 16711680 1 10
0.96662837 0.10582934 0.0082409354 16711680 1 10
0.93637645 0.088937379 0.058151923 16711680 1 10
0.84214091 0.078385651 -0.015289687 16711680 1 10
0.10676786 -0.18803203 0.68991703 16711680 1 10
0.10633411 -0.18977655 0.69580734 16711680 1 10
0.98337269 0.023984822 -0.012460801 16711680 1 10
1.0575452 0.025079153 -0.023627061 16711680 1 10
0.80769837 -0.038563095 -0.024011625 16711680 1 10
0.85561633 -0.059525609 -0.024210883 16711680 1 10
0.86502469 -0.077898674 -0.019559935 16711680 1 10
0.97166127 -0.10938918 -0.029863257 16711680 1 10
0.81118584 0.066575646 0.014366363 65280 2 10
0.72299075 -0.063392527 -0.040566768 65280 2 10
0.7190038 -0.068963863 -0.0048547434 65280 2 10
1.5425124 0.49412486 -0.0015475437 255 3 11
1.3251375 -0.11091994 6.9658076e-06 255 3 11
1.2820079 -0.11083043 -0.15700592 255 3 11
1.3314986 0.56884009 0.19476333 16711680 1 11
1.338326 0.55638033 0.18746844 16711680 1 11
1.5931529 0.61876047 0.080423474 16711680 1 11
1.4207994 0.50109327 0.2082417 16711680 1 11
1.5874261 0.55086541 0.11777224 16711680 1 11
1.5773467 0.53325176 0.15933597 16711680 1 11
1.4037911 0.47168887 0.18499447 16711680 1 11
1.5881112 0.52404058 0.12023855 16711680 1 11
1.5379566 0.44534647 0.13427743 16711680 1 11
1.5954617 0.45581394 0.11904369 16711680 1 11
1.4957199 0.43063965 0.075916 16711680 1 11
1.7277673 0.47192481 0.050466795 16711680 1 11
1.4680048 0.37726575 0.14760898 16711680 1 11
1.402491 0.37159669 0.10235726 16711680 1 11
1.4135684 0.35634658 0.081648767 16711680 1 11
1.5289817 0.36975089 0.078328334 16711680 1 11
1.4098475 0.30426216 0.17183143 16711680 1 11
1.4930943 0.33358064 0.075017482 16711680 1 11
1.5630094 0.32659343 0.11281669 16711680 1 11
1.5167655 0.31605864 0.06570112 16711680 1 11
1.582263 0.31203851 0.060463909 16711680 1 11
1.8042458 0.37405893 -0.029507458 16711680 1 11
1.4896739 0.24060208 0.067816935 16711680 1 11
1.3971201 0.2021378 0.10693646 16711680 1 11
1.347854 0.16197802 0.14950751 16711680 1 11
1.1521515 0.055145018 0.012637229 16711680 1 11
1.412832 0.040798191 0.022667613 16711680 1 11
1.5618223 -0.09879414 -0.0101449 16711680 1 11
1.3736103 -0.10403314 -0.013207301 16711680 1 11
1.4019028 -0.11478259 -0.0037210647 16711680 1 11
1.5672088 -0.1038575 -0.068031088 16711680 1 11
1.2710885 -0.11552598 -0.02714867 16711680 1 11
1.4750512 -0.13232182 0.042467758 16711680 1 11
1.2658186 -0.11843733 -0.049572628 16711680 1 11
1.4178997 0.21173446 0.089347273 65280 2 11
1.3523659 0.17151436 0.16179426 65280 2 11
1.302385 0.12802082 0.18456005 65280 2 11
1.793557 0.4430204 0.26118943 255 3 12
2.3944473 0.53543335 -0.019456336 255 3 12
2.3798461 0.393796 0.0048681535 255 3 12
2.7218173 0.41005772 -0.044234578 255 3 12
1.4825058 0.10765055 0.10979562 255 3 12
0.063422091 0.33406195 0.0083483327 16711680 1 12
0.086726546 0.32681757 0.0087687755 16711680 1 12
1.6976459 0.56200618 0.19044098 16711680 1 12
1.6652616 0.51380038 0.19725904 16711680 1 12
1.7362661 0.47601113 0.15604122 16711680 1 12
1.7557238 0.46959358 0.13323912 16711680 1 12
1.7442724 0.42781189 0.17069782 16711680 1 12
1.9643855 0.49020335 0.12719975 16711680 1 12
1.781052 0.44176555 0.12261033 16711680 1 12
2.2500589 0.54801035 0.11041618 16711680 1 12
1.744181 0.41270334 0.16672923 16711680 1 12
1.9432576 0.46470624 0.13216534 16711680 1 12
1.8254529 0.41037384 0.23180923 16711680 1 12
1.8234735 0.44354144 0.088417411 16711680 1 12
1.8671004 0.42334917 0.1226569 16711680 1 12
1.7766715 0.39722931 0.12487702 16711680 1 12
1.9578593 0.42839155 0.10501327 16711680 1 12
1.7390226 0.37301558 0.12117967 16711680 1 12
1.984386 0.41738555 0.13156579 16711680 1 12
1.9603943 0.40816733 0.10961436 16711680 1 12
1.763522 0.34213632 0.15013494 16711680 1 12
2.0914595 0.40933689 0.13062364 16711680 1 12
2.1661716 0.41246325 0.12904549 16711680 1 12
1.8059331 0.34632882 0.1066321 16711680 1 12
1.8558798 0.34584707 0.10956749 16711680 1 12
1.7308112 0.31418553 0.11310516 16711680 1 12
0.73691201 -0.010291019 0.68619376 16711680 1 12
1.8600364 0.31623667 0.12132093 16711680 1 12
1.9805974 0.34262711 0.094882399 16711680 1 12
2.2582629 0.39024127 0.080108725 16711680 1 12
1.9312645 0.340904 0.035760924 16711680 1 12
1.8982608 0.30295056 0.15960842 16711680 1 12
2.2792144 0.37343431 0.078230426 16711680 1 12
1.6700131 0.23902188 0.11361757 16711680 1 12
1.9018321 0.28795266 0.051110484 16711680 1 12
1.9905151 0.20657739 0.42177588 16711680 1 12
2.9250264 0.42893371 -0.09288986 16711680 1 12
2.3767564 0.26056725 0.29638472 16711680 1 12
1.8488084 0.26684049 -0.03675241 16711680 1 12
2.2329478 0.31052524 -0.019231029 16711680 1 12
2.1010637 0.24589866 0.17677085 16711680 1 12
1.4302083 0.13820931 0.23949859 16711680 1 12
1.9956824 0.26734212 -0.004522719 16711680 1 12
2.3718531 0.088047579 0.072991803 16711680 1 12
2.3179121 -0.14501913 0.080111526 16711680 1 12
2.237452 -0.16526768 0.14364816 16711680 1 12
2.2180798 -0.16435103 0.040667783 16711680 1 12
2.2641532 -0.18083495 0.11963394 16711680 1 12
2.2481532 -0.18446234 0.091951467 16711680 1 12
2.2811501 -0.2243616 0.24141403 16711680 1 12
2.1055632 -0.21306773 0.12611754 16711680 1 12
2.3108261 -0.23770915 0.093464404 16711680 1 12
2.2420123 -0.4502202 0.10799529 16711680 1 12
1.6361294 -0.46927354 0.14162976 16711680 1 12
1.7665937 -0.49519894 0.035991859 16711680 1 12
1.6329497 -0.5155499 0.38680851 16711680 1 12
1.5616763 -0.49263141 0.18611914 16711680 1 12
1.6373109 -0.53956014 0.39180958 16711680 1 12
1.6455394 -0.5410887 0.32998598 16711680 1 12
1.7222387 -0.57861888 0.38361388 16711680 1 12
1.5787573 -0.55296004 0.35592678 16711680 1 12
1.5693593 0.56561941 0.15735574 65280 2 12
1.541986 0.51688218 0.18228659 65280 2 12
1.6735647 0.54103398 0.16443795 65280 2 12
1.6439239 0.38043404 0.10623538 65280 2 12
2.4547303 0.12995483 0.027195647 65280 2 12
2.2190874 -0.15109061 0.10298606 65280 2 12
2.2706075 -0.15632345 0.012949625 65280 2 12
2.0225868 -0.19460286 0.26001209 65280 2 12
2.1106696 -0.20120491 0.18363075 65280 2 12
1.9491552 -0.44720286 0.14094518 65280 2 12
1.7914436 -0.49004078 0.26070663 65280 2 12
WIDTH 482
HEIGHT 1
VIEWPOINT 0 0 0 1 0 0 0
POINTS 482
DATA ascii
-0.39090884 -0.24487163 0.014669252 -16777216 0 1
-0.076776333 0.1040356 -0.0030401219 -16777216 0 1
-0.36812812 -0.24359258 0.017168326 -16777216 0 1
-0.07127694 0.014659556 0.0016728307 -16777216 0 1
-0.46007174 0.029102599 -0.0095796809 -16777216 0 1
-0.079975061 0.074668944 -0.0091878865 -16777216 0 1
-0.094835505 0.04079508 -0.0037631039 -16777216 0 1
-0.068312392 0.12947708 -0.0021908747 -16777216 0 1
-0.098963469 0.1216627 -0.00064172631 -16777216 0 1
0.017360875 0.018620828 -0.0029547915 -16777216 0 1
-0.066970512 0.08809673 0.00011377441 -16777216 0 1
-0.076370418 0.038381904 -0.0038577537 -16777216 0 1
0.061382245 -0.070044369 -0.010790377 -16777216 0 1
0.029468561 -0.10499767 -0.0048113824 -16777216 0 1
0.21919829 -0.002376484 -0.0085483324 -16777216 0 1
0.11134685 -0.066637196 0.000392577 -16777216 0 1
0.22980426 -0.050589155 -0.010696501 -16777216 0 1
0.065696426 -0.1004637 -0.0054922104 -16777216 0 1
-0.41041437 0.036044642 -0.014796061 -16777216 0 1
0.12280959 -0.064839803 -0.0043952847 -16777216 0 1
0.0012126223 -0.017725598 -0.0089093223 -16777216 0 1
-0.067743458 -0.085222103 -0.011912735 -16777216 0 1
-0.02086051 -0.0283422 -0.0031887859 -16777216 0 1
-0.065118 -0.096702583 0.0036147784 -16777216 0 1
0.22315399 -0.062042315 -0.012102033 -16777216 0 1
0.037709843 0.19002579 -0.0012865858 -16777216 0 1
0.022284294 0.20331876 -0.0049250019 -16777216 0 1
0.030423041 -0.027970018 -0.0067234808 -16777216 0 1
0.23395105 -0.0399547 -0.017642953 -16777216 0 1
0.10985345 -0.050650183 -0.003344012 -16777216 0 1
0.016018419 -0.076949008 -0.0069479467 -16777216 0 1
-0.061825372 -0.068456545 -0.0075414027 -16777216 0 1
-0.48145306 0.19630843 -0.0064139613 16711680 1 2
-0.45694017 0.20424743 -0.02331366 16711680 1 2
0.24331956 0.24000083 0.011165518 16711680 1 2
-0.47464123 0.19987264 -0.021475719 16711680 1 2
0.12063628 0.21249045 0.0011739255 16711680 1 2
0.042773716 0.1973709 0.00028610756 16711680 1 2
0.11346602 0.20716013 -0.00046931842 16711680 1 2
0.025249826 0.19447647 -0.0068218983 16711680 1 2
0.037877195 0.18729617 0.0015501906 16711680 1 2
-0.082123637 0.1263252 -0.002060246 16711680 1 2
-0.076302946 0.12378256 0.0037827471 16711680 1 2
-0.067821495 0.12649022 -0.00010578091 16711680 1 2
-0.098022684 0.11546595 0.0014157197 16711680 1 2
-0.06341435 0.13264197 -0.028694974 16711680 1 2
-0.35022995 0.1012661 -0.0089033945 16711680 1 2
-0.46778014 0.10142711 -0.019745445 16711680 1 2
-0.35205272 0.092254989 -0.0077987881 16711680 1 2
-0.075352535 0.10023108 0.0016175325 16711680 1 2
-0.099827014 0.094708711 -0.00668348 16711680 1 2
-0.064408273 0.090177633 -0.011568656 16711680 1 2
-0.081827745 0.073499799 0.0028143835 16711680 1 2
-0.46037668 0.064286985 -0.01032564 16711680 1 2
-0.42310777 0.065468654 -0.022058628 16711680 1 2
-0.083787449 0.070582509 -0.0042392276 16711680 1 2
-0.39891854 0.049438197 -0.010064093 16711680 1 2
-0.095133528 0.051797371 0.011736148 16711680 1 2
0.055812441 0.067104742 -0.0028302281 16711680 1 2
-0.4600367 0.045119453 -0.0088061541 16711680 1 2
-0.44957644 0.07317581 -0.081305496 16711680 1 2
-0.04816046 0.056596819 -0.0018022346 16711680 1 2
0.10105493 0.067247719 -0.0016811964 16711680 1 2
0.021193894 0.058092732 -0.0060714264 16711680 1 2
-0.38121 0.037759993 -0.0092055956 16711680 1 2
-0.078742027 0.045716874 0.00033384984 16711680 1 2
-0.022958679 0.053818837 -0.011879143 16711680 1 2
-0.01269341 0.048067674 0.0056487932 16711680 1 2
0.075719029 0.054753799 0.0030435175 16711680 1 2
-0.40871063 0.031413727 -0.0054942612 16711680 1 2
-0.018051891 0.048162181 -0.005110478 16711680 1 2
0.04543585 0.055006828 -0.010386352 16711680 1 2
0.11488809 0.061584339 -0.016025275 16711680 1 2
-0.46123287 0.033080462 -0.022713237 16711680 1 2
-0.095672406 0.039369766 -0.005621315 16711680 1 2
-0.031774271 0.042349409 -0.0047813081 16711680 1 2
0.012245705 0.040645905 0.0066153044 16711680 1 2
0.024148382 0.047401033 -0.0099981567 16711680 1 2
0.039875828 0.018690452 0.073403835 16711680 1 2
-0.0064756679 0.036503892 0.0081377262 16711680 1 2
0.0052821054 0.041869279 -0.0065829349 16711680 1 2
0.045030408 0.04570986 -0.0094299391 16711680 1 2
0.08455544 0.053316727 -0.021764856 16711680 1 2
-0.059530821 0.031863872 -0.00011604203 16711680 1 2
0.1042502 0.04448729 -0.0029907683 16711680 1 2
-0.027503133 0.034094278 -0.010380923 16711680 1 2
0.26898655 0.055511769 -0.003264206 16711680 1 2
0.27598959 0.050199058 -7.5249751e-05 16711680 1 2
0.30527508 0.055947725 -0.013209585 16711680 1 2
0.13936807 0.031150233 0.0098731928 16711680 1 2
0.31150448 0.053122386 -0.011470636 16711680 1 2
0.35934895 0.059837811 -0.016839538 16711680 1 2
0.10488121 0.026066206 0.002273534 16711680 1 2
0.19686849 0.036238857 -0.0045824652 16711680 1 2
0.21316753 0.041536145 -0.01768015 16711680 1 2
0.22939967 0.034078706 0.018347798 16711680 1 2
0.25920209 0.044708692 -0.011754666 16711680 1 2
0.32875413 0.049103953 -0.0073832665 16711680 1 2
0.3759793 0.054886237 -0.012685921 16711680 1 2
-0.069959968 0.012790773 -0.0035465807 16711680 1 2
0.020640057 0.019672208 -0.0083415098 16711680 1 2
0.05152509 0.018699827 0.0046283682 16711680 1 2
0.062230993 0.021269796 -0.0047339397 16711680 1 2
0.090005249 0.024957614 -0.0092197917 16711680 1 2
0.14280668 0.020447301 0.013550084 16711680 1 2
0.16257735 0.026480962 0.0054552974 16711680 1 2
0.22292885 0.028229153 0.015423859 16711680 1 2
0.36412245 0.049603343 -0.012458048 16711680 1 2
-0.035324398 0.014878253 -0.010666357 16711680 1 2
0.21302819 0.031248569 -0.011833512 16711680 1 2
0.22848138 0.023969853 0.020283667 16711680 1 2
-0.051739413 0.0055959458 0.00032327796 16711680 1 2
0.042694099 0.014063192 -0.0072719879 16711680 1 2
0.046225335 0.012128773 -0.00069867878 16711680 1 2
0.1663325 0.023914721 -0.01251656 16711680 1 2
0.37622952 0.047640756 -0.030443754 16711680 1 2
0.18399386 0.020755036 -0.012504147 16711680 1 2
0.30602303 0.033317327 -0.02087485 16711680 1 2
-0.0045410981 0.0012362014 -0.00094842166 16711680 1 2
0.020462885 0.0035886902 -0.0072016744 16711680 1 2
0.30050766 0.024143573 -0.0009145909 16711680 1 2
0.32102939 0.030141765 -0.018059589 16711680 1 2
-0.049649812 -0.0083904834 0.007049615 16711680 1 2
-0.042007919 -0.0055935537 -4.9097893e-05 16711680 1 2
-0.0077384962 -0.00038272975 -0.0096309986 16711680 1 2
-0.06799975 -0.011394834 0.0016610813 16711680 1 2
0.3719326 0.027687918 -0.027892152 16711680 1 2
0.1435494 -0.0030447892 -0.0086450726 16711680 1 2
0.22300498 0.0020356912 -0.0085160881 16711680 1 2
-0.039626323 -0.021449316 0.0028459465 16711680 1 2
0.00018703511 -0.019935202 -0.0049263295 16711680 1 2
0.059413947 -0.017564695 -0.0060175685 16711680 1 2
0.070633501 -0.014094711 -0.011389672 16711680 1 2
0.19271998 -0.012052501 0.0048630456 16711680 1 2
0.22392434 -0.0048018424 -0.010784118 16711680 1 2
0.052560784 -0.019941557 -0.0071327393 16711680 1 2
0.07254146 -0.02035426 -0.0015091016 16711680 1 2
0.10670727 -0.016534662 -0.0080632176 16711680 1 2
0.13237962 -0.014923197 -0.011281195 16711680 1 2
-0.019060418 -0.02836882 -0.0036043779 16711680 1 2
0.011347878 -0.029862501 0.0034883639 16711680 1 2
0.098825619 -0.020288911 -0.0097190309 16711680 1 2
0.22680655 -0.013136575 -0.010402719 16711680 1 2
-0.038571183 -0.034568373 2.1060598e-05 16711680 1 2
0.02862897 -0.030277837 -0.0014714416 16711680 1 2
0.15282699 -0.02089382 -0.013766334 16711680 1 2
0.00083461241 -0.034584966 -0.0059685032 16711680 1 2
0.074090213 -0.03292999 0.0016619593 16711680 1 2
0.10893486 -0.028460447 -0.0061551458 16711680 1 2
0.047393657 -0.038195238 0.0051235436 16711680 1 2
0.09885899 -0.032029271 -0.01014897 16711680 1 2
0.01703063 -0.042067643 -0.0041194893 16711680 1 2
0.053102124 -0.043929871 -0.0025375453 16711680 1 2
0.1134514 -0.050074205 -0.011108153 16711680 1 2
0.14881285 -0.055935927 -0.009631549 16711680 1 2
0.22732857 -0.052781358 -0.010486299 16711680 1 2
-0.067020938 -0.073184796 0.0085850041 16711680 1 2
0.15431295 -0.059724137 -0.0065329121 16711680 1 2
0.2080009 -0.058397505 0.00080129172 16711680 1 2
0.25077063 -0.056687627 -0.0057930443 16711680 1 2
0.28287145 -0.051393624 -0.02161414 16711680 1 2
-0.0049469615 -0.071131915 -0.0077443584 16711680 1 2
0.045805573 -0.069354489 -0.0050901813 16711680 1 2
0.10300811 -0.069402121 0.0078219399 16711680 1 2
0.11216056 -0.066672623 -0.0017349106 16711680 1 2
0.36395851 0.042409271 -0.38566306 16711680 1 2
-0.042488456 -0.076908402 -0.0013024879 16711680 1 2
0.024038473 -0.074153982 -0.0060136775 16711680 1 2
0.040741529 -0.071307227 -0.009273652 16711680 1 2
0.052049063 -0.073419213 -0.0020178321 16711680 1 2
0.092138909 -0.071332954 -0.0074192956 16711680 1 2
0.14416754 -0.067998499 -0.0093329959 16711680 1 2
-0.0026277611 -0.078691579 -0.0042856187 16711680 1 2
0.016247164 -0.077821441 -0.0049659619 16711680 1 2
0.077748507 -0.076263987 -0.0022349632 16711680 1 2
0.056633469 -0.082548551 0.0041253413 16711680 1 2
0.10528735 -0.078395084 -0.0032174448 16711680 1 2
-0.031935636 -0.084767781 -0.013352771 16711680 1 2
-0.015879929 -0.084997423 -0.010209437 16711680 1 2
-0.0068890387 -0.083819173 -0.012930867 16711680 1 2
-0.059418939 -0.097228952 0.0044363574 16711680 1 2
0.067391589 -0.10103204 -0.0060058851 16711680 1 2
0.10124747 -0.10126116 -0.016068697 16711680 1 2
0.13904691 -0.1182626 0.066583127 16711680 1 2
0.19427927 -0.097468786 -0.018893328 16711680 1 2
0.004465092 -0.10902279 -0.0070048212 16711680 1 2
0.034170654 -0.10892104 -0.0073150652 16711680 1 2
0.08420857 -0.10411499 -0.021355987 16711680 1 2
0.0024257996 -0.11722022 -0.024333265 16711680 1 2
0.04859392 -0.11859547 -0.0077400785 16711680 1 2
-0.49517712 -0.2505284 0.015806681 16711680 1 2
-0.40026963 -0.24329402 0.0095265573 16711680 1 2
-0.38827503 -0.24700278 0.021042842 16711680 1 2
-0.36494565 -0.2446218 0.0045141876 16711680 1 2
-0.48171347 -0.25669894 0.020756314 16711680 1 2
-0.4763501 -0.25382277 -0.009569006 16711680 1 2
-0.10500918 0.11245895 0.021225777 65280 2 2
-0.068518393 0.12811352 -0.0048525888 65280 2 2
-0.078942023 0.094990686 0.0089331577 65280 2 2
-0.098320626 0.091041088 -0.0025002917 65280 2 2
-0.095991291 0.067245312 -0.0077023492 65280 2 2
-0.40139225 0.051073663 -0.008126012 65280 2 2
-0.44326246 0.043962616 -0.012529875 65280 2 2
0.017415859 0.056114335 0.0042622848 65280 2 2
-0.077245325 0.036460333 0.0028378635 65280 2 2
0.016388081 0.048676305 -0.018707428 65280 2 2
-0.066546366 0.010274336 -0.011806963 65280 2 2
-0.053778548 0.0065140054 0.0011966345 65280 2 2
-0.10703737 -0.10141724 0.30932337 65280 2 2
0.0097669279 0.0085404431 0.0078214901 65280 2 2
-0.026747745 -0.030195454 0.0054717893 65280 2 2
-0.06073666 -0.069684081 -0.0066992613 65280 2 2
0.11774142 -0.064241454 -0.0064708712 65280 2 2
-0.057326563 -0.095965967 0.0070054652 65280 2 2
0.068181463 -0.10264613 -0.0035353433 65280 2 2
-0.38571614 -0.24409783 0.0022125435 65280 2 2
-0.35616124 -0.24254304 -0.0016791514 65280 2 2
-0.39358711 -0.24905138 -0.019432513 255 3 3
0.66012609 -0.037014592 0.0049963924 16711680 1 3
0.73250043 -0.025591254 -0.024878858 16711680 1 3
0.66114092 -0.036792614 -0.0078762807 16711680 1 3
0.65603018 -0.039629724 -0.021503016 16711680 1 3
0.67416769 -0.045070395 -0.016804878 16711680 1 3
0.76892585 -0.039054696 -0.054913174 16711680 1 3
0.66176927 -0.058102403 -0.0060573877 16711680 1 3
0.71075469 -0.053543247 -0.023398252 16711680 1 3
0.76632935 -0.060240701 -0.058092162 16711680 1 3
0.71212429 -0.070589662 -0.031673715 16711680 1 3
0.72855431 -0.092659064 -0.02460972 16711680 1 3
0.66448355 -0.15963522 -0.012700348 16711680 1 3
0.63719136 -0.16162559 -0.026340641 16711680 1 3
0.68778449 -0.16656576 -0.0074163126 16711680 1 3
0.50448203 -0.17506281 -0.0069862641 16711680 1 3
0.52413487 -0.17505477 -0.0083433669 16711680 1 3
0.54863274 -0.17800246 -0.0078890789 16711680 1 3
0.61520898 -0.17099269 -0.056228824 16711680 1 3
0.45986134 -0.17814887 -0.006316273 16711680 1 3
0.5753572 -0.17059274 -0.015702216 65280 2 3
0.49756154 -0.17746423 -0.0040264889 65280 2 3
0.53058416 -0.17712547 -0.014069687 65280 2 3
-0.49898851 -0.25410393 -0.002854733 65280 2 3
-0.090134718 0.079579107 0.046113461 255 3 4
-0.59765971 -0.25772676 -0.021973738 16711680 1 4
-0.58452463 -0.25645572 -0.020708486 16711680 1 4
-0.54066765 -0.25415593 0.0017808746 16711680 1 4
-0.55676758 -0.25889659 0.0024662707 16711680 1 4
-0.072400354 0.27611405 8.2889266e-05 16711680 1 5
-0.48007828 0.17173944 -0.052417032 16711680 1 5
-0.64677334 0.11587957 -0.041470855 16711680 1 5
0.64670998 -0.040209718 -0.0097268401 16711680 1 5
0.66134346 -0.045525342 -0.026670221 16711680 1 5
-0.65962875 -0.26650721 -0.037969418 16711680 1 5
-0.57973009 -0.25522467 -0.013738316 65280 2 5
0.062516101 0.33585131 0.0053373021 16711680 1 6
0.088799633 0.32795596 -0.0017389057 16711680 1 6
-0.50167567 0.01945518 -0.032103565 16711680 1 6
-0.81479746 0.12078737 -0.03354346 16711680 1 7
0.35800651 0.057606097 -0.0080914926 16711680 1 7
0.30680856 0.049485818 3.1543506e-05 16711680 1 7
0.37518513 0.056137789 -0.014695277 16711680 1 7
0.22220729 -0.0011721663 -0.0099107409 16711680 1 7
0.25523284 -0.049009293 -0.016760573 16711680 1 7
0.21316607 -0.057005372 -0.0019063861 16711680 1 7
0.23182419 -0.052787367 -0.015880095 16711680 1 7
0.5999403 -0.16613452 -0.053668164 255 3 9
0.64010721 -0.17114696 -0.00073903677 255 3 9
0.79568017 -0.15951708 -0.015809616 16711680 1 9
0.80961931 -0.15789388 -0.0078281639 65280 2 9
0.84311676 0.16560681 0.023605762 16711680 1 10
0.98138565 0.18038104 0.018908657 16711680 1 10
0.83769935 0.15651809 0.011766071 16711680 1 10
0.93123877 0.170101 0.0081945769 16711680 1 10
0.98026526 0.17002809 0.035973471 16711680 1 10
1.0456839 0.1795658 0.033251859 16711680 1 10
0.8169356 0.12710525 0.00038328333 16711680 1 10
0.88638222 0.11041895 -0.0012949548 16711680 1 10
0.89682978 0.1099246 0.0047865934 16711680 1 10
0.85152882 0.088803254 0.017612746 16711680 1 10
0.9626224 0.10510992 0.011635372 16711680 1 10
0.95649129 0.094892986 0.041280463 16711680 1 10
0.83361512 0.075627588 -0.0074596223 16711680 1 10
0.10676786 -0.18803203 0.68991703 16711680 1 10
0.10633411 -0.18977655 0.69580734 16711680 1 10
0.95379913 0.017017605 0.012550638 16711680 1 10
1.0524755 0.024194648 -0.019485911 16711680 1 10
0.80353826 -0.039146256 -0.020068819 16711680 1 10
0.85652441 -0.0594614 -0.025042251 16711680 1 10
0.86587 -0.077590331 -0.020347899 16711680 1 10
0.98331058 -0.10746009 -0.039931938 16711680 1 10
0.80483586 0.064109318 0.020387625 65280 2 10
